ncols 210
nrows 53
xllcenter 1489200
yllcenter 5201380
cellsize 20.00
NODATA_value -9999.000
1252.423 1246.720 1238.640 1226.656 1213.486 1200.799 1189.767 1179.296 1166.320 1152.429 1139.776 1128.821 1116.776 1101.257 1089.366 1079.356 1069.345 1061.336 1049.828 1035.843 1023.664 1015.210 1012.016 1018.867 1032.496 1045.053 1053.658 1058.071 1058.878 1058.527 1057.046 1054.214 1051.206 1047.208 1041.681 1036.783 1028.558 1022.122 1018.367 1013.811 1006.631 1000.330 1000.037 1001.342 1002.837 1002.310 999.744 997.873 997.342 996.507 994.467 993.044 991.948 990.239 986.992 982.824 979.762 976.424 972.343 968.025 963.840 960.096 957.748 955.328 950.978 945.071 939.985 937.521 937.112 938.220 939.704 941.825 942.569 940.386 936.549 932.697 932.063 936.378 947.606 960.595 969.329 974.262 975.649 972.360 964.326 955.867 949.107 945.045 941.702 938.200 933.468 926.080 915.932 905.572 898.285 895.424 892.850 888.068 883.230 879.888 877.685 873.013 867.465 863.205 860.436 859.448 857.677 856.449 854.875 852.688 849.625 845.957 842.286 839.993 839.998 839.997 839.986 839.386 838.773 838.578 838.482 838.408 838.321 838.076 837.644 838.621 838.619 838.138 837.650 836.913 835.865 834.384 832.531 830.620 829.055 828.089 827.691 827.737 828.253 829.149 830.224 831.220 832.063 832.675 832.713 832.285 831.940 832.643 835.194 840.030 847.245 853.952 858.556 859.864 859.582 859.297 859.275 859.318 858.704 856.698 854.965 852.284 848.858 844.951 841.217 839.463 840.846 842.615 844.054 845.120 846.385 848.473 851.445 854.938 859.705 864.713 870.250 876.045 881.474 886.432 891.344 895.900 899.194 903.308 907.068 910.939 916.213 924.062 936.534 947.776 955.581 959.442 960.512 960.436 957.515 951.504 944.275 938.171 932.342 926.177 920.363 916.935 915.486 911.763 904.506 895.425 884.939 873.259 861.514 852.486
1239.084 1233.946 1226.183 1216.416 1205.477 1195.448 1185.156 1176.075 1165.692 1153.491 1139.747 1125.413 1110.975 1096.788 1084.634 1072.898 1065.204 1061.595 1053.755 1041.647 1028.779 1015.293 1003.889 1005.425 1015.935 1027.585 1036.508 1040.730 1041.857 1041.892 1041.565 1040.545 1038.359 1034.243 1029.995 1026.435 1023.826 1021.496 1020.049 1016.769 1008.670 1000.700 998.883 999.011 999.836 998.700 994.614 991.688 990.684 989.380 986.726 984.365 983.906 983.528 981.999 979.479 976.047 972.226 968.032 963.746 960.260 957.246 954.569 951.865 948.328 944.265 940.970 938.924 935.802 934.488 934.838 936.294 936.565 934.444 930.686 928.035 929.415 935.555 946.425 958.389 965.903 969.318 967.694 961.108 951.205 942.443 936.754 933.131 930.640 929.092 926.341 920.322 910.420 900.372 892.855 887.375 883.173 878.845 874.027 869.787 866.472 863.179 859.667 856.993 855.417 854.702 853.743 853.101 852.328 851.141 849.013 845.964 842.734 840.592 840.008 839.492 838.939 838.621 838.376 838.307 838.217 838.156 837.992 838.000 839.213 840.512 840.520 839.961 839.157 838.111 836.664 834.346 831.320 828.185 825.628 824.141 823.562 823.294 823.499 824.127 825.213 826.233 827.110 827.798 828.167 828.240 828.402 829.339 831.762 836.097 840.675 845.047 848.454 848.941 847.234 846.215 846.236 847.188 848.792 849.367 849.257 847.971 845.552 842.613 840.056 839.018 840.008 841.166 842.083 842.725 843.380 844.438 846.179 848.688 852.556 857.165 862.440 867.519 872.254 875.883 879.215 881.730 886.147 895.054 901.648 905.777 910.565 917.240 927.814 940.279 948.479 952.185 952.870 951.761 948.125 942.154 934.538 927.050 920.406 914.841 911.375 909.581 907.827 904.032 897.152 887.958 877.139 865.131 854.932 846.422
1223.632 1217.888 1210.547 1202.237 1193.099 1183.792 1176.378 1169.018 1160.693 1150.073 1135.309 1117.388 1101.827 1089.142 1076.212 1062.566 1056.371 1055.053 1051.363 1043.921 1032.089 1015.751 1000.381 997.419 1003.085 1011.412 1019.089 1023.683 1026.491 1027.470 1028.419 1027.669 1025.531 1021.869 1019.490 1018.940 1020.091 1021.440 1021.830 1019.844 1012.659 1003.486 997.760 994.787 992.234 989.138 985.818 983.798 984.149 983.138 981.195 977.981 976.659 976.360 975.558 973.234 970.358 967.237 963.770 960.110 957.668 954.413 951.271 948.492 945.766 943.228 941.580 939.712 934.220 929.909 928.700 929.215 929.222 927.101 923.882 922.548 926.562 934.811 945.555 955.853 962.384 963.975 959.066 949.142 939.202 932.417 927.201 922.784 919.953 919.478 918.116 912.697 904.004 895.099 887.321 880.234 874.844 870.203 865.504 860.949 858.275 856.674 855.182 853.967 853.150 852.739 852.657 852.741 852.562 851.998 850.472 847.875 845.060 843.073 842.219 841.593 840.386 840.114 840.136 840.161 840.173 840.172 840.102 840.012 840.271 841.969 842.329 841.578 840.615 839.463 838.202 835.293 831.115 826.674 822.997 821.081 820.736 820.053 819.995 820.118 821.208 822.046 822.854 823.682 824.433 825.034 825.696 826.862 828.978 832.101 835.273 838.027 840.046 839.976 837.940 836.455 836.507 838.095 840.591 842.667 844.240 844.223 842.912 841.078 839.258 838.571 839.997 840.887 841.378 841.525 841.445 841.256 841.716 842.574 845.099 849.213 854.282 859.646 864.351 867.971 870.569 873.005 877.848 886.515 894.377 899.858 905.473 911.997 920.699 932.484 940.746 944.331 944.846 943.672 939.406 932.789 924.922 917.102 910.542 905.613 903.777 903.140 900.821 896.641 889.324 879.146 867.420 856.712 847.484 838.224
1207.366 1201.166 1194.994 1188.215 1180.887 1173.841 1167.607 1161.079 1153.920 1143.586 1127.312 1108.858 1094.325 1082.154 1067.772 1054.559 1047.025 1045.135 1044.355 1040.787 1031.992 1017.696 1001.283 992.939 992.035 997.134 1004.336 1010.043 1013.602 1015.763 1017.763 1016.163 1013.340 1011.042 1011.366 1015.072 1019.916 1022.216 1023.305 1022.060 1016.047 1005.785 997.245 991.124 985.154 980.695 979.839 979.206 979.961 978.255 975.845 972.414 970.135 968.958 967.644 965.680 963.584 961.899 959.573 956.433 953.466 950.241 947.086 944.591 942.737 941.022 939.973 936.926 930.044 923.850 922.354 922.792 923.481 921.903 919.883 919.829 924.886 934.662 945.027 953.819 959.037 956.660 947.480 937.466 929.977 924.117 918.077 911.519 907.481 906.774 905.899 901.803 895.741 888.713 881.535 873.603 867.325 863.264 859.932 856.527 854.584 853.708 853.455 853.200 853.332 853.951 854.931 855.591 855.566 855.244 854.048 851.585 849.272 847.853 847.645 848.164 848.201 848.159 848.269 848.408 848.505 848.390 847.615 846.361 845.975 846.457 846.139 844.794 842.856 840.803 839.436 836.830 831.724 826.235 821.563 819.585 819.462 818.990 818.540 818.745 819.237 819.966 820.041 820.863 821.797 822.676 823.582 824.744 826.354 828.386 830.486 832.357 833.514 833.437 832.316 831.397 831.767 833.695 836.770 839.830 841.281 841.396 840.809 839.946 838.370 838.174 839.977 840.599 841.022 840.877 840.455 839.294 838.508 838.243 839.667 842.096 845.906 851.427 857.232 861.862 864.528 867.006 871.736 879.015 885.642 891.651 898.989 906.906 915.321 924.590 931.920 935.005 935.030 933.163 928.362 922.076 915.607 908.310 901.310 896.765 895.518 895.406 892.885 887.358 879.708 869.195 858.059 848.385 838.509 827.006
1192.745 1187.184 1181.913 1176.857 1171.287 1165.280 1159.358 1152.719 1145.372 1135.516 1119.751 1102.588 1089.041 1076.794 1061.846 1048.442 1038.342 1033.502 1033.272 1033.072 1028.918 1018.944 1003.495 990.850 982.136 982.395 988.896 995.828 1000.073 1003.465 1004.303 1002.387 999.141 998.051 1002.054 1010.240 1018.121 1021.762 1023.512 1022.971 1018.807 1008.708 999.147 990.568 982.993 979.125 978.763 977.803 975.945 972.554 968.841 965.842 963.906 962.493 960.660 959.312 957.198 956.135 954.154 951.645 948.812 945.608 942.479 940.311 939.685 937.875 935.797 932.075 926.001 920.109 918.434 918.827 919.969 919.784 918.031 918.297 924.902 936.141 945.005 950.838 951.727 945.773 936.528 928.455 921.507 914.661 906.635 899.634 895.607 894.336 893.471 890.633 885.931 880.004 872.430 865.060 860.603 858.443 856.469 854.485 853.552 853.503 853.839 854.191 855.165 856.592 858.541 859.978 860.040 860.035 859.374 856.959 855.861 855.660 856.570 858.855 860.023 860.023 859.682 859.521 859.607 859.594 858.328 855.786 854.930 854.218 852.344 849.925 846.963 843.834 841.070 837.951 832.913 827.131 821.746 819.417 818.964 818.474 818.050 817.951 818.166 818.595 819.048 819.592 820.394 821.160 822.031 823.014 824.130 825.368 826.638 827.804 828.606 828.788 828.476 828.323 829.024 830.911 833.832 836.906 838.342 838.435 838.209 837.246 836.365 836.648 838.182 839.348 840.006 839.947 838.940 837.404 836.063 835.503 836.081 837.551 839.790 844.181 850.522 855.845 859.195 860.719 864.133 869.236 875.135 880.681 888.901 899.617 909.340 918.027 923.259 925.091 924.704 921.901 917.729 912.378 905.938 898.754 891.430 886.499 885.445 885.423 883.159 877.069 869.312 859.690 849.580 839.512 828.203 818.381
1181.271 1176.708 1172.295 1167.674 1162.379 1155.943 1149.687 1143.709 1136.893 1127.212 1113.723 1099.107 1085.005 1072.197 1058.363 1043.537 1029.995 1021.468 1020.356 1022.070 1024.232 1019.712 1006.827 992.029 979.551 973.042 974.192 979.147 983.472 987.276 986.694 984.530 982.292 982.910 991.666 1005.395 1015.932 1020.194 1022.318 1022.265 1017.865 1008.984 999.990 991.484 984.545 981.034 980.012 977.656 972.881 967.274 962.655 960.310 959.721 957.868 955.751 953.274 951.014 949.562 948.218 946.431 944.244 941.598 938.674 936.700 934.930 932.797 930.338 927.247 923.566 919.984 916.784 915.344 915.242 915.478 915.944 918.239 926.471 938.735 945.549 948.237 946.002 938.850 929.123 920.630 912.703 904.148 896.652 890.929 887.218 884.901 883.407 881.036 877.149 870.545 862.264 858.606 857.314 856.513 855.703 855.033 855.197 856.400 856.977 857.549 859.490 860.867 863.281 865.114 865.770 865.838 865.317 865.001 866.207 867.951 870.135 872.250 873.323 872.535 870.312 868.867 868.953 869.726 869.042 867.443 866.686 864.714 860.964 857.275 853.240 849.035 844.406 839.764 835.523 829.924 823.549 819.955 819.250 818.774 818.172 817.683 817.509 817.671 818.128 818.846 819.700 820.271 821.000 821.721 822.414 823.106 823.818 824.519 825.124 825.513 825.729 826.073 826.909 828.474 830.705 832.964 834.230 834.339 833.752 832.883 832.536 833.217 834.669 836.085 836.880 836.840 836.002 834.769 833.688 833.244 833.663 834.912 837.073 840.405 845.194 849.357 852.195 853.965 856.013 859.384 864.284 870.000 877.549 888.111 900.687 909.874 915.294 916.973 916.630 914.053 909.222 902.347 893.885 885.057 879.303 875.295 873.819 873.534 871.713 865.703 857.750 848.584 839.696 829.320 819.319 813.326
1172.348 1167.761 1163.073 1157.857 1151.555 1144.953 1139.759 1135.720 1130.219 1121.102 1108.634 1095.279 1081.290 1067.699 1053.393 1038.088 1023.946 1014.216 1010.677 1013.008 1018.714 1018.087 1006.928 992.179 977.794 965.916 963.463 966.539 970.675 973.380 972.676 971.204 971.828 976.388 987.237 1002.741 1012.705 1018.097 1020.055 1019.522 1013.448 1004.785 997.820 991.101 985.379 981.930 980.604 977.639 970.884 963.931 959.866 958.112 956.566 954.221 951.302 948.122 945.292 943.789 943.133 941.886 940.255 938.418 935.375 932.597 929.944 927.309 924.932 922.838 921.103 918.584 914.589 911.399 910.114 910.957 914.049 919.656 928.146 938.773 944.666 946.421 943.353 935.334 924.214 914.301 904.331 896.008 889.759 885.284 882.259 879.968 878.121 876.295 872.758 867.042 860.830 859.972 860.283 860.593 860.631 860.565 860.920 863.040 864.612 866.008 868.043 869.631 871.052 872.120 872.622 872.738 872.998 874.796 877.997 880.341 882.758 884.208 884.839 883.388 879.549 876.589 876.594 878.835 879.672 879.573 879.333 877.432 872.722 867.367 861.882 856.832 851.299 845.387 840.594 834.655 827.079 821.601 819.989 819.566 818.655 817.735 817.115 816.917 817.191 817.919 818.966 819.679 820.331 820.760 821.109 821.468 821.883 822.326 822.773 823.219 823.679 824.246 825.045 826.199 827.706 829.175 829.936 829.636 828.489 827.336 827.399 828.645 830.323 831.830 832.762 832.974 832.568 831.867 831.290 831.210 831.838 833.240 835.505 838.570 841.397 843.756 845.477 846.506 848.274 851.450 856.247 861.788 869.353 878.323 889.572 899.755 906.479 909.322 909.005 905.661 899.372 889.726 879.715 873.300 868.990 865.147 861.749 860.228 858.461 852.784 844.929 836.719 828.790 820.699 814.475 810.808
1163.660 1157.944 1151.730 1145.228 1139.193 1134.212 1130.788 1128.329 1123.803 1114.973 1102.752 1091.043 1078.352 1063.042 1047.825 1032.399 1018.677 1008.122 1002.349 1002.681 1008.970 1010.119 1002.290 989.234 974.761 961.980 958.210 959.463 962.764 964.921 963.609 963.081 966.768 974.825 987.190 999.432 1007.388 1012.446 1013.802 1010.920 1003.823 997.748 993.363 988.804 984.480 981.190 979.358 976.095 969.465 962.714 959.223 957.605 955.070 951.897 948.391 944.799 941.465 939.994 940.008 939.109 937.431 935.019 931.972 928.814 925.697 922.756 920.873 919.923 918.674 916.056 911.811 907.543 905.248 906.210 910.613 918.335 926.541 935.548 942.110 944.343 942.028 934.779 922.861 912.208 900.568 891.343 885.248 881.982 880.059 878.539 876.263 874.900 873.221 870.683 868.645 869.104 870.698 872.463 872.905 872.876 873.029 873.894 875.177 877.779 879.284 879.666 879.809 879.901 879.906 879.832 880.034 882.481 885.974 888.412 890.118 891.820 893.698 893.755 889.532 885.245 884.454 886.055 887.617 888.271 888.212 886.549 882.986 878.441 872.714 866.171 859.980 853.894 846.856 839.205 831.180 824.793 821.150 820.010 819.067 817.935 816.852 816.176 816.075 816.529 817.388 818.353 819.287 819.982 819.999 820.329 820.558 820.945 821.253 821.656 822.164 822.772 823.448 824.232 825.154 825.974 826.192 825.416 823.698 821.928 822.472 824.365 826.293 827.876 828.927 829.397 829.396 829.174 829.050 829.321 830.160 831.612 833.648 836.036 838.148 839.756 840.019 840.080 841.816 844.880 849.763 856.836 864.487 871.852 879.335 887.232 894.979 898.292 898.021 893.709 885.918 876.145 867.899 863.838 860.401 855.889 851.098 847.478 844.558 839.679 833.614 827.182 821.068 815.888 812.008 809.717
1153.147 1145.256 1138.354 1131.930 1126.950 1123.504 1120.601 1118.855 1113.990 1105.477 1095.306 1084.961 1072.971 1058.331 1042.674 1027.506 1013.897 1002.821 995.083 993.838 998.902 1000.562 995.974 984.787 973.202 963.315 956.710 954.145 957.488 959.544 958.485 958.880 963.842 972.224 981.932 990.435 998.871 1003.778 1004.332 1000.071 993.748 989.502 987.602 985.548 982.847 980.080 978.119 974.315 968.747 963.454 960.636 958.346 954.677 950.970 947.346 943.866 940.960 939.160 938.229 937.005 934.883 932.137 929.045 925.895 922.944 920.602 919.367 918.251 917.008 914.499 910.214 905.023 901.281 901.554 904.688 911.178 919.760 928.988 936.569 939.945 938.583 933.349 924.145 912.702 899.583 887.981 881.662 879.828 878.256 876.744 875.381 875.726 876.227 876.884 877.523 879.327 880.599 882.854 883.673 883.778 883.735 883.811 884.265 885.861 887.268 887.558 887.433 887.291 886.919 886.365 886.823 889.749 893.927 896.166 897.233 898.923 901.844 903.622 899.959 895.520 894.667 895.638 896.472 896.645 896.073 894.041 890.681 886.377 880.707 873.958 867.115 860.467 852.239 842.940 834.817 828.556 824.349 821.331 819.458 818.430 816.724 815.450 814.843 814.884 815.441 816.303 817.262 818.089 818.635 819.259 819.625 819.993 820.288 820.622 821.079 821.648 822.175 822.666 823.182 823.576 823.487 822.634 821.155 819.999 820.281 821.759 823.456 824.919 825.981 826.609 826.883 826.985 827.155 827.618 828.503 829.810 831.456 833.229 834.721 835.572 835.574 835.669 837.017 839.362 843.233 851.375 860.131 866.912 872.401 876.767 880.690 882.489 882.043 878.594 871.772 864.156 857.909 854.943 851.385 846.087 841.097 837.184 833.946 829.982 825.599 820.956 817.923 813.949 810.956 809.264
1140.193 1131.439 1124.843 1119.353 1115.194 1112.141 1108.487 1104.697 1099.323 1092.457 1084.980 1076.672 1065.359 1052.415 1038.114 1022.587 1009.299 997.215 986.018 981.814 985.529 987.752 985.112 978.447 970.987 963.431 954.302 946.197 947.126 950.643 952.524 955.543 960.559 965.540 973.383 981.908 990.365 993.827 992.036 986.483 981.430 980.757 982.277 982.723 981.768 979.988 977.664 973.652 968.546 963.680 960.109 957.731 954.392 951.135 948.049 944.852 941.557 939.223 937.779 936.214 933.619 930.484 927.238 924.144 921.525 919.945 918.286 917.305 916.581 914.916 911.483 906.193 900.456 899.190 899.823 902.891 910.286 919.609 927.005 931.066 931.159 927.706 920.464 909.241 896.000 882.955 878.292 877.107 876.351 875.622 876.156 877.682 879.049 881.169 882.742 884.749 886.458 888.246 889.415 889.975 890.351 890.899 891.849 893.518 895.368 896.087 896.285 896.546 895.985 894.258 894.057 897.540 903.554 907.706 909.765 911.157 913.404 914.015 910.634 907.024 907.653 909.809 910.375 909.390 906.490 901.812 897.357 892.643 886.283 879.083 871.701 864.474 856.072 845.452 837.543 833.089 829.374 825.240 821.450 819.107 816.847 814.914 813.735 813.300 813.461 814.047 814.878 815.760 816.587 817.370 818.031 818.590 819.412 819.992 820.296 820.811 821.194 821.458 821.758 821.975 821.867 821.293 820.402 819.819 820.000 820.750 821.924 823.102 824.058 824.721 825.127 825.393 825.693 826.188 826.959 827.980 829.171 830.382 831.314 831.685 831.551 831.488 832.091 833.602 836.807 843.412 852.402 860.878 866.079 868.868 870.232 870.462 868.862 864.797 859.308 853.974 849.575 846.484 842.715 837.547 833.153 829.575 826.472 823.473 821.196 818.610 815.664 812.646 810.281 808.943
1127.762 1119.226 1112.718 1107.483 1102.865 1098.273 1093.220 1087.346 1083.072 1079.250 1073.828 1066.433 1056.896 1045.372 1031.795 1017.314 1004.278 991.195 979.207 973.186 973.498 974.703 974.284 971.644 967.700 962.768 953.419 941.703 939.806 941.691 943.094 945.582 950.645 956.629 965.890 977.830 983.699 983.629 979.494 974.497 972.032 974.181 978.435 981.145 981.555 980.581 978.318 973.976 968.845 963.890 959.979 956.996 954.472 952.419 950.549 948.009 944.354 940.336 938.821 937.264 934.020 930.494 927.017 923.756 921.024 918.920 917.476 917.200 917.698 917.758 916.469 913.112 907.184 902.157 898.733 898.247 902.669 909.985 916.310 919.952 920.276 917.873 911.220 900.297 886.963 878.490 876.304 875.934 875.807 876.510 877.801 879.986 881.834 884.124 886.329 888.357 890.197 891.935 893.395 894.615 896.040 897.802 900.348 903.172 907.177 909.526 910.356 911.210 910.269 905.813 903.146 906.794 914.174 920.039 923.005 923.887 924.178 923.450 920.380 917.385 919.099 922.317 923.354 921.957 917.913 910.905 903.941 898.474 890.628 881.551 874.412 866.905 858.884 849.429 843.098 840.010 836.750 831.809 826.199 821.533 817.799 814.971 813.123 812.084 811.737 811.983 812.628 813.462 814.354 815.240 816.083 816.938 817.884 818.772 819.599 820.008 820.400 820.465 820.758 820.994 821.028 820.822 820.317 819.649 819.761 820.384 821.281 822.213 823.026 823.641 824.063 824.365 824.667 825.082 825.652 826.335 827.066 827.762 828.211 828.226 827.889 827.524 827.486 828.232 830.433 834.740 841.461 849.991 856.695 859.389 859.795 859.466 857.396 852.871 848.445 844.454 840.920 838.554 834.797 830.219 826.336 823.889 821.729 820.086 818.676 816.498 813.916 811.471 809.605 808.583
1116.183 1107.509 1099.841 1093.604 1086.963 1081.764 1076.998 1073.100 1070.476 1067.819 1063.118 1056.355 1048.294 1037.749 1024.931 1012.167 999.456 985.774 973.091 965.330 963.848 964.217 964.292 964.339 963.643 962.151 956.086 944.830 936.959 932.246 929.057 930.968 938.463 947.971 958.256 969.266 974.158 973.060 968.661 964.605 963.734 967.810 975.107 980.122 981.666 980.913 978.781 974.860 969.742 964.445 959.971 957.132 955.528 954.879 954.750 953.403 950.029 945.295 941.575 938.882 935.706 932.263 928.730 925.156 921.709 918.987 918.197 918.714 920.474 923.086 924.414 923.163 918.135 909.935 900.511 896.584 898.097 902.307 906.379 908.747 908.306 905.128 899.571 890.134 880.293 876.556 876.204 876.428 877.112 878.666 880.319 883.201 885.828 888.039 890.194 892.260 894.236 896.290 898.174 900.466 903.478 907.180 912.060 917.001 920.926 924.011 925.070 925.112 923.556 919.579 915.051 915.556 922.163 928.412 931.699 932.463 932.180 931.032 928.434 925.684 926.754 929.446 930.494 929.103 924.562 917.226 909.493 902.458 894.111 884.765 877.256 869.249 861.058 856.385 853.341 850.000 845.479 839.622 832.592 825.924 820.221 816.368 813.477 811.500 810.504 810.417 810.865 811.549 812.341 813.182 814.048 814.968 815.966 817.007 818.050 818.915 819.413 819.701 820.005 820.350 820.545 820.747 820.394 819.544 819.553 820.382 821.145 821.938 822.651 823.201 823.577 823.828 824.041 824.304 824.644 825.008 825.333 825.577 825.611 825.318 824.766 824.120 823.517 823.492 824.422 826.359 830.379 836.731 842.689 846.333 847.001 846.601 844.518 840.944 838.241 834.516 831.190 828.921 826.652 823.393 820.480 819.955 819.107 818.511 816.684 814.520 812.291 810.318 808.943 808.464
1104.233 1094.022 1084.710 1078.415 1073.298 1068.657 1064.395 1060.505 1058.207 1055.935 1050.784 1045.120 1038.660 1029.070 1017.467 1005.690 992.968 978.476 965.092 957.357 955.605 956.151 957.426 959.704 960.159 962.002 959.239 948.531 937.293 926.176 918.547 920.101 929.020 940.061 949.777 957.966 961.273 960.802 958.402 956.144 957.341 963.004 972.058 979.486 981.586 981.250 979.900 976.360 971.560 966.208 961.305 958.669 957.970 958.139 959.678 959.544 956.998 952.246 946.085 941.367 938.384 935.623 932.556 929.201 926.069 923.605 923.052 923.904 927.208 931.801 934.986 934.572 929.620 919.350 904.903 897.265 896.112 897.569 899.626 900.227 899.467 896.063 890.903 883.575 878.807 878.112 878.167 878.361 879.734 881.821 885.230 888.862 891.646 893.401 895.619 897.913 900.435 903.279 906.275 910.299 914.172 918.573 923.826 928.706 932.365 934.984 935.751 934.983 932.150 927.105 920.776 920.103 928.409 936.990 941.540 942.501 942.131 940.903 938.699 936.108 936.532 937.926 937.684 935.744 930.541 921.755 912.865 904.275 895.202 886.269 879.711 874.182 870.599 869.349 866.998 862.019 855.525 848.001 840.311 833.118 825.878 819.952 815.165 811.789 810.020 809.642 809.828 810.240 810.784 811.418 812.139 812.956 813.875 814.883 815.934 816.909 817.683 818.338 818.968 819.398 819.997 820.716 820.519 819.373 819.383 820.395 821.155 821.963 822.679 823.203 823.524 823.685 823.761 823.832 823.937 824.028 824.034 823.922 823.630 823.099 822.388 821.632 820.696 819.984 819.967 819.979 821.485 826.563 831.336 834.369 835.166 835.045 833.781 831.055 828.123 824.630 821.266 820.154 819.928 818.350 816.696 816.109 815.794 815.218 814.037 812.407 810.673 809.215 808.378 808.573
1091.344 1080.588 1072.912 1067.357 1062.245 1056.697 1050.896 1046.159 1042.531 1040.681 1037.600 1034.034 1028.910 1020.922 1010.156 997.975 984.001 968.106 956.128 949.966 948.461 949.885 952.815 956.628 960.042 962.205 960.105 951.927 941.282 927.714 917.177 916.580 922.847 932.088 940.266 945.720 947.596 947.563 947.514 948.344 952.296 959.936 969.310 977.247 980.891 981.165 980.026 978.049 974.399 970.031 965.532 962.932 962.659 962.892 963.925 963.781 961.632 956.805 950.004 944.288 941.195 939.892 937.886 935.876 934.529 933.426 933.076 934.178 938.085 944.330 948.940 947.479 941.059 929.650 914.180 901.353 896.909 895.591 895.801 895.656 894.540 891.900 887.969 883.459 881.501 881.695 881.919 882.356 884.286 887.938 892.522 896.912 899.722 900.499 903.204 906.840 910.639 913.831 916.552 920.195 923.638 927.893 933.816 938.783 941.847 945.098 946.442 945.088 941.146 935.466 928.086 927.588 938.093 949.264 956.201 958.166 957.511 954.690 951.995 950.534 951.588 952.785 950.095 945.463 938.304 926.842 914.764 904.535 894.905 886.075 880.013 879.611 881.487 882.508 880.350 875.093 866.949 857.714 849.400 841.078 832.947 825.264 818.240 813.451 810.653 809.633 809.459 809.546 809.771 810.088 810.550 811.148 811.889 812.751 813.692 814.625 815.455 816.173 816.830 817.505 818.580 819.942 819.970 818.865 818.997 820.008 821.053 822.025 822.852 823.424 823.723 823.802 823.737 823.615 823.493 823.353 823.123 822.767 822.268 821.607 820.822 820.019 819.330 817.901 817.019 816.820 818.315 820.466 823.263 825.559 826.311 826.308 825.511 823.330 820.622 818.063 815.670 814.560 814.367 813.734 812.862 812.429 812.261 811.992 811.358 810.330 809.179 808.294 808.124 808.874
1080.344 1070.838 1063.376 1057.002 1049.921 1043.052 1037.451 1032.970 1029.326 1026.895 1025.296 1023.047 1018.825 1011.704 1001.180 988.384 973.524 958.493 948.505 943.676 942.559 944.672 948.295 953.067 957.991 960.133 958.813 951.336 941.570 928.274 917.253 914.287 918.128 924.819 931.669 935.388 936.202 936.795 938.910 940.859 946.715 955.979 965.658 973.819 979.318 980.051 980.276 979.508 977.605 975.305 972.461 970.144 969.300 969.447 969.767 968.757 965.091 959.438 953.212 948.336 945.617 944.606 944.164 944.914 945.911 946.256 946.854 948.928 953.457 959.222 961.317 957.992 949.669 938.314 923.542 909.104 900.669 897.718 895.423 894.310 893.281 891.778 889.890 887.867 886.801 886.824 887.495 889.195 892.357 897.267 902.797 907.304 909.405 910.092 912.859 917.768 920.913 923.522 924.917 927.294 930.204 934.383 940.643 947.013 951.817 955.473 958.376 957.889 953.617 946.901 938.229 938.343 950.307 961.749 968.010 970.258 969.555 966.997 965.245 965.005 965.447 964.896 961.800 955.381 944.757 930.268 915.958 904.807 895.527 888.254 884.269 886.317 889.897 891.618 890.929 887.445 879.623 868.975 859.374 850.122 841.647 833.972 825.388 818.070 813.383 810.695 809.579 809.366 809.299 809.251 809.465 809.763 810.268 810.914 811.651 812.400 813.060 813.598 814.095 814.722 815.653 816.644 817.074 817.250 818.312 819.982 820.848 821.933 822.936 823.630 823.957 823.989 823.823 823.551 823.244 822.913 822.508 821.998 821.402 820.758 820.005 819.176 817.962 816.397 815.176 814.778 815.565 817.029 818.712 820.009 820.052 820.052 819.993 818.511 816.281 813.954 811.994 810.851 810.346 809.917 809.492 809.286 809.287 809.302 809.097 808.597 808.029 807.780 808.322 809.419
1071.533 1061.979 1053.099 1045.075 1038.149 1032.392 1026.793 1021.175 1016.798 1012.626 1010.443 1009.258 1006.427 1000.091 990.298 977.824 962.841 949.928 942.196 939.561 938.760 940.307 943.222 947.384 951.591 953.368 951.078 944.709 935.726 924.675 916.024 912.788 915.568 920.608 925.869 928.361 929.082 930.030 932.004 934.909 940.553 949.894 960.003 967.551 973.426 977.288 979.424 980.101 980.005 979.974 978.519 976.551 975.378 975.567 975.688 974.622 970.271 963.078 957.035 953.308 951.673 951.418 952.790 956.105 959.476 961.287 963.295 966.533 969.867 970.542 967.396 960.610 953.026 943.025 928.702 913.469 903.709 899.796 896.705 895.304 894.994 894.841 895.350 895.343 895.008 894.972 895.979 899.171 903.571 910.205 916.499 919.343 919.544 918.658 920.759 925.435 929.289 931.497 932.357 933.908 936.318 939.898 946.711 955.093 960.992 965.312 968.661 969.034 965.298 958.317 949.879 951.125 961.828 972.166 977.712 980.488 980.336 977.757 975.825 975.480 974.507 971.183 965.421 958.422 946.687 932.196 918.392 906.972 899.050 894.951 894.732 898.412 901.570 902.173 901.182 898.898 890.899 878.899 867.829 858.723 851.031 844.021 836.604 827.503 819.776 814.178 811.262 810.076 809.634 809.405 809.228 809.125 809.243 809.602 810.045 810.504 810.844 811.045 811.215 811.496 811.973 812.572 813.295 814.496 816.627 819.143 820.411 821.518 822.739 823.596 823.996 824.034 823.833 823.491 823.077 822.616 822.089 821.480 820.832 820.237 819.686 818.492 816.951 815.287 813.900 813.199 813.396 814.274 815.387 816.047 816.013 815.869 815.609 814.551 812.784 810.912 809.318 808.231 807.597 807.204 806.969 806.933 807.092 807.335 807.471 807.435 807.415 807.932 808.868 810.214
1062.885 1052.357 1042.059 1034.812 1028.732 1022.449 1015.463 1007.953 1001.989 997.508 994.589 993.990 992.725 987.433 979.150 968.161 954.914 943.762 937.773 935.237 934.854 936.099 938.152 940.838 943.862 944.691 942.127 935.363 926.602 917.719 911.129 909.337 913.644 919.935 923.345 923.791 923.895 924.963 926.861 929.935 935.251 942.869 951.683 959.340 966.189 972.675 977.297 980.001 981.517 982.113 981.404 979.996 979.000 979.868 980.027 979.930 976.305 969.331 963.390 960.301 959.897 960.545 963.175 968.566 973.616 977.964 981.411 983.756 982.929 978.765 970.884 960.877 952.659 942.935 927.989 912.774 903.196 899.986 897.633 897.775 899.521 900.748 903.445 905.727 906.465 906.706 908.250 912.176 917.141 921.984 925.851 927.750 927.461 926.265 928.044 932.283 937.064 940.067 940.741 941.837 944.838 948.734 955.211 963.222 969.871 975.006 979.021 979.706 975.315 967.406 961.553 964.955 974.077 982.796 988.198 992.189 992.888 990.273 987.107 984.805 980.995 974.204 964.015 955.422 945.394 933.214 921.062 911.559 905.690 905.680 909.218 914.197 917.700 916.714 912.164 906.716 898.260 885.820 873.929 864.441 857.914 852.367 846.149 839.184 830.261 821.291 816.282 813.466 812.014 811.005 810.159 809.512 809.107 808.965 809.047 809.180 809.206 809.088 808.976 808.904 808.913 809.026 809.672 811.134 813.798 817.222 819.427 820.661 822.132 823.110 823.607 823.729 823.586 823.277 822.859 822.360 821.778 821.127 820.466 819.997 819.145 817.856 816.238 814.527 813.019 812.032 811.760 812.106 812.701 813.070 813.016 812.699 812.155 811.208 809.894 808.490 807.251 806.328 805.735 805.405 805.289 805.380 805.677 806.111 806.552 806.973 807.573 808.490 809.692 811.220
1051.648 1041.102 1032.049 1024.772 1017.573 1008.966 1000.149 992.870 987.276 982.756 980.689 980.333 979.440 975.150 968.386 959.074 946.980 938.166 933.315 930.608 930.082 930.937 932.684 934.952 936.480 936.023 932.651 925.310 917.346 909.839 903.705 903.611 910.700 919.336 921.635 920.203 920.088 921.493 923.068 925.679 930.290 936.385 943.698 952.236 960.653 968.630 975.331 979.986 982.444 983.349 982.995 981.816 981.081 981.595 982.076 981.668 979.796 976.207 972.471 969.728 969.464 971.721 975.697 980.442 985.694 991.399 995.351 994.898 990.760 983.388 972.604 960.245 949.887 938.992 923.355 909.475 900.503 899.168 899.581 902.405 907.180 911.463 914.612 917.969 919.358 919.568 920.614 923.271 926.038 929.176 932.115 934.508 935.562 935.240 935.723 938.593 944.688 950.247 952.812 953.690 955.762 959.146 963.976 971.583 979.623 985.670 989.199 989.571 985.532 978.826 974.507 977.693 985.421 993.393 999.558 1003.861 1005.088 1002.904 998.884 994.270 987.426 977.036 963.265 953.787 944.665 934.882 925.525 918.866 916.330 920.099 926.632 930.913 931.013 926.484 919.155 911.535 903.112 892.028 879.761 869.957 863.001 857.841 852.788 847.549 841.042 833.649 827.085 821.302 818.088 815.438 813.279 811.604 810.325 809.424 808.912 808.748 808.657 808.566 809.097 809.217 808.894 808.104 807.477 808.041 810.142 813.416 816.750 818.995 820.885 821.884 822.574 822.910 822.955 822.797 822.489 822.055 821.506 820.890 820.284 819.698 818.746 817.374 815.740 814.024 812.439 811.223 810.562 810.443 810.616 810.737 810.591 810.159 809.487 808.606 807.588 806.558 805.645 804.945 804.490 804.276 804.284 804.501 804.933 805.543 806.262 807.086 808.093 809.307 810.716 812.382
1037.656 1028.945 1020.202 1011.390 1001.628 993.025 985.406 979.158 974.480 971.258 969.317 967.615 965.450 961.087 955.488 947.203 938.027 931.552 927.439 925.313 924.947 925.394 926.660 928.661 929.594 928.268 923.914 917.494 910.867 904.560 900.044 900.142 906.051 912.925 916.122 917.207 918.801 920.017 920.644 922.399 926.726 932.289 939.080 947.246 956.688 965.780 974.056 979.972 983.044 984.254 984.280 983.667 983.163 983.112 982.971 982.162 980.842 980.060 979.447 976.812 976.262 978.233 981.792 986.332 991.984 997.839 1000.855 999.311 993.846 984.526 971.237 957.082 945.064 933.803 920.421 908.613 900.858 900.317 903.754 910.584 917.941 923.115 926.216 928.848 930.105 930.216 930.466 931.330 932.815 935.404 938.269 941.578 944.242 944.632 944.693 947.089 954.004 960.644 964.310 965.008 965.544 967.952 972.808 980.880 991.465 998.349 1000.253 1000.162 997.621 992.113 987.961 989.297 996.035 1004.369 1011.436 1014.942 1015.340 1012.861 1008.581 1003.162 994.391 981.070 967.205 956.394 947.545 939.623 933.209 929.492 931.189 937.919 944.305 946.052 941.593 932.962 922.148 914.515 907.402 898.757 887.330 876.362 868.199 862.359 857.958 854.241 849.774 845.058 840.412 835.135 829.440 823.865 819.823 816.724 814.128 811.971 810.284 809.377 809.544 810.827 812.542 813.229 812.835 811.299 809.084 807.124 807.010 809.075 811.895 814.810 817.652 819.761 820.838 821.537 821.908 822.030 821.929 821.658 821.213 820.671 820.174 819.591 818.461 817.011 815.366 813.662 812.040 810.664 809.693 809.172 808.964 808.828 808.564 808.089 807.421 806.639 805.837 805.090 804.456 803.986 803.711 803.647 803.799 804.160 804.738 805.518 806.472 807.595 808.893 810.332 811.901 813.644
1023.729 1014.757 1004.585 994.712 985.984 978.831 972.567 967.131 962.901 959.536 957.396 953.784 949.708 944.845 940.271 934.840 929.097 924.407 921.738 920.038 919.962 919.982 920.609 922.758 923.337 922.174 918.725 912.780 906.851 902.065 899.027 899.977 901.577 903.507 907.673 912.961 916.734 918.764 919.771 921.452 925.903 930.817 936.583 944.627 954.771 964.790 973.536 979.990 983.295 984.843 985.296 985.106 984.710 984.244 983.511 982.436 981.425 980.901 980.014 978.913 978.411 979.227 981.566 985.972 991.800 997.862 1001.327 999.908 992.315 981.223 967.653 953.722 940.953 929.895 919.787 911.921 908.405 909.604 914.740 921.896 929.265 934.192 937.087 939.539 940.106 940.246 940.399 940.419 941.083 944.367 948.433 952.594 954.492 954.727 954.725 956.836 962.720 969.762 974.078 975.049 975.132 977.342 983.435 992.638 1002.270 1008.195 1010.389 1010.397 1008.569 1004.792 1001.086 1001.547 1007.212 1015.168 1022.288 1025.342 1025.162 1021.827 1017.476 1011.591 1002.249 988.299 974.285 962.927 954.458 947.226 943.045 942.934 948.833 956.033 959.609 958.462 950.569 938.500 926.189 917.842 911.985 905.374 896.704 884.738 875.081 868.391 863.841 860.630 857.323 853.460 849.479 845.267 840.718 835.858 830.983 826.559 822.774 818.590 815.084 812.892 813.044 815.644 819.026 820.112 819.917 817.774 814.094 809.970 806.690 805.856 806.902 809.089 812.104 815.251 817.984 819.869 820.592 821.065 821.248 821.217 820.905 820.449 820.000 819.324 818.162 816.678 815.023 813.327 811.693 810.226 809.036 808.195 807.654 807.267 806.881 806.403 805.817 805.179 804.568 804.047 803.649 803.396 803.313 803.419 803.734 804.260 805.002 805.957 807.114 808.466 809.974 811.569 813.225 814.958
1009.570 1000.423 990.755 980.930 972.867 966.479 960.570 954.846 949.834 945.459 941.748 938.360 934.320 931.258 928.107 924.577 920.755 917.750 916.356 915.191 914.815 914.825 915.577 916.622 916.565 915.415 912.335 907.644 902.566 899.522 897.638 898.791 899.086 899.357 904.845 912.672 917.378 919.879 921.867 925.055 929.041 932.417 936.649 944.043 954.395 964.436 972.820 979.512 982.828 985.061 986.045 986.187 985.859 985.100 983.843 982.294 980.947 980.396 979.400 977.998 977.127 976.939 977.673 980.559 985.956 992.395 996.099 993.934 985.793 974.896 962.481 951.123 939.563 927.621 919.447 916.269 918.285 921.861 928.087 934.891 941.034 945.472 947.871 949.536 950.161 951.227 952.590 952.844 953.652 957.114 960.751 964.046 964.916 964.406 963.932 966.045 972.460 978.865 983.150 985.058 986.109 989.223 996.661 1004.958 1012.282 1017.686 1020.562 1020.872 1019.684 1016.335 1013.706 1014.179 1018.650 1024.987 1030.971 1034.350 1034.921 1031.862 1026.900 1020.107 1010.584 998.111 984.930 973.304 963.811 956.638 954.397 957.604 963.153 967.996 969.812 967.044 958.214 943.428 930.625 922.146 916.979 911.780 905.122 896.027 885.226 877.479 872.163 869.051 866.280 862.106 857.674 853.254 849.074 845.345 842.206 840.125 837.177 831.075 825.164 821.440 821.217 824.752 828.589 829.986 830.010 828.770 823.423 816.291 809.898 805.339 803.142 803.615 806.169 809.661 813.359 816.651 819.155 820.012 820.677 820.868 820.632 820.216 819.836 819.035 817.808 816.302 814.643 812.947 811.309 809.799 808.484 807.429 806.638 806.041 805.542 805.066 804.581 804.103 803.679 803.357 803.166 803.120 803.233 803.528 804.023 804.732 805.660 806.802 808.149 809.680 811.320 812.978 814.626 816.268
996.897 989.321 980.021 969.938 961.604 954.984 948.144 941.766 936.581 932.235 927.929 924.144 920.487 918.549 916.289 913.406 911.304 909.775 909.065 908.648 908.428 908.398 908.678 908.961 908.430 906.442 904.111 900.251 895.554 893.304 894.857 897.040 898.606 901.779 911.046 918.770 923.201 926.804 930.083 933.161 935.809 936.844 938.227 944.076 954.156 963.268 970.884 977.519 982.212 985.321 986.817 987.239 986.965 985.959 984.183 982.065 980.398 979.370 977.736 975.958 974.590 971.746 969.167 970.774 976.003 981.758 985.196 982.586 976.224 967.117 957.159 948.166 938.366 925.565 917.765 919.628 926.152 933.664 940.678 946.696 951.951 956.399 959.385 960.219 960.560 961.689 963.926 964.885 966.171 968.698 971.788 974.370 974.859 973.665 972.110 973.863 980.139 986.852 992.041 995.162 998.056 1001.930 1008.897 1016.829 1023.909 1029.997 1033.180 1033.317 1031.090 1028.087 1026.665 1027.115 1030.312 1034.961 1039.076 1040.935 1041.825 1039.838 1035.291 1027.702 1018.921 1008.781 997.310 985.722 975.411 968.471 967.086 970.161 974.302 976.574 976.791 973.341 964.487 950.093 935.981 927.096 921.958 917.718 912.682 906.255 898.816 890.641 883.479 880.338 878.600 874.584 869.323 863.351 858.287 854.330 851.291 849.186 847.020 843.482 839.493 836.847 836.406 840.356 843.860 843.613 842.702 842.104 837.094 826.441 815.818 807.406 801.578 800.015 801.535 804.641 808.628 812.891 816.787 819.432 820.424 820.698 820.431 820.001 819.561 818.636 817.355 815.835 814.179 812.487 810.847 809.321 807.956 806.793 805.855 805.122 804.541 804.065 803.663 803.326 803.074 802.937 802.939 803.092 803.410 803.910 804.607 805.514 806.642 807.982 809.507 811.160 812.841 814.455 815.982 817.438
985.584 978.341 968.726 959.465 951.515 943.880 936.083 929.822 925.079 920.677 916.071 911.820 907.581 904.641 901.944 900.807 900.373 899.990 899.577 899.387 899.432 899.674 900.043 900.223 899.814 897.365 894.293 889.847 885.195 885.417 892.798 898.516 901.202 908.850 919.345 926.368 931.492 935.862 938.989 940.632 943.054 943.666 943.666 947.091 954.067 960.716 968.648 976.495 982.428 986.036 987.942 988.619 988.392 987.156 984.869 982.118 979.963 978.265 977.349 977.682 975.442 969.080 961.242 960.896 965.815 970.583 973.408 971.519 966.003 958.594 950.379 943.542 935.338 924.158 918.787 923.569 933.964 943.103 950.989 956.688 961.185 965.689 969.278 971.392 972.868 973.726 974.872 976.187 978.971 981.482 983.616 986.049 986.295 984.559 981.966 982.308 987.560 995.098 1001.079 1004.967 1008.701 1014.375 1021.822 1030.313 1038.020 1042.867 1044.936 1044.310 1041.460 1039.769 1039.368 1039.673 1041.399 1044.510 1046.773 1047.729 1046.953 1044.138 1039.470 1032.429 1025.093 1017.931 1008.286 998.586 989.289 983.089 982.028 983.421 985.369 985.103 982.865 978.474 969.448 957.154 943.225 934.362 928.239 923.120 918.461 914.580 909.510 903.544 897.739 893.496 890.513 886.949 882.801 877.880 871.924 866.234 861.523 857.955 855.749 854.489 853.271 852.480 854.001 857.473 860.451 859.755 857.499 853.737 847.577 837.678 823.945 812.303 803.456 799.938 799.895 801.327 804.763 809.297 814.057 818.062 820.014 820.623 820.284 819.844 819.190 818.128 816.776 815.238 813.597 811.927 810.300 808.780 807.409 806.217 805.225 804.435 803.823 803.360 803.023 802.799 802.695 802.726 802.908 803.256 803.784 804.502 805.416 806.534 807.867 809.399 811.067 812.774 814.402 815.873 817.183 818.329
971.324 964.785 956.932 949.729 941.902 933.041 924.695 918.760 914.024 909.518 905.189 901.017 896.788 893.880 892.218 891.732 891.319 889.915 887.744 886.766 886.900 888.044 889.886 890.627 890.112 888.162 884.733 880.878 878.771 881.542 893.183 901.710 906.630 914.677 923.821 930.924 936.676 940.238 942.499 945.155 948.966 951.775 952.204 953.316 956.616 960.642 968.127 976.139 982.787 987.227 989.634 990.553 990.370 988.976 986.414 983.297 980.439 980.283 981.649 983.746 981.036 972.974 961.595 957.733 959.494 960.687 962.276 959.752 953.860 947.232 941.497 937.621 932.020 925.085 923.471 930.959 942.688 952.782 959.947 965.200 969.827 974.639 978.894 981.791 984.996 986.950 988.849 990.573 993.792 997.465 999.105 999.934 999.891 999.038 997.877 997.724 999.813 1005.193 1011.439 1015.115 1019.200 1025.579 1033.875 1041.502 1048.118 1052.183 1053.516 1052.848 1050.758 1049.345 1049.215 1049.893 1051.597 1053.387 1054.467 1053.953 1051.217 1046.515 1040.231 1033.939 1027.980 1022.334 1015.421 1007.829 1001.831 998.583 998.026 997.556 996.099 994.028 989.206 981.469 972.971 963.136 952.995 944.184 936.924 930.859 925.532 921.729 918.763 914.863 911.065 906.720 902.357 898.739 894.729 890.731 886.075 880.868 876.003 870.092 865.968 864.380 864.046 864.536 866.414 869.019 870.730 870.364 867.243 861.400 854.623 845.532 832.955 819.242 808.459 801.848 798.684 799.929 802.175 806.245 811.317 816.318 819.929 820.579 820.207 819.647 818.689 817.453 816.024 814.475 812.865 811.245 809.665 808.179 806.835 805.662 804.679 803.896 803.303 802.882 802.611 802.484 802.504 802.683 803.032 803.570 804.306 805.243 806.378 807.709 809.238 810.932 812.689 814.379 815.884 817.158 818.237 819.078
954.226 949.920 945.590 940.376 932.307 922.167 914.449 908.509 903.438 899.147 895.719 892.308 887.814 884.665 883.785 883.449 882.813 880.580 877.539 875.563 875.107 876.407 878.498 879.104 878.380 878.346 877.697 877.265 878.678 884.490 894.802 902.723 908.267 916.050 924.177 930.875 937.230 941.034 941.949 945.889 952.467 958.861 960.005 960.191 962.108 965.235 970.833 977.675 984.434 989.628 992.202 993.135 992.957 991.533 989.282 987.452 987.417 989.916 993.065 994.117 989.575 979.821 967.069 958.742 956.298 954.772 952.640 947.119 941.760 938.105 935.536 933.490 930.967 929.154 931.426 939.188 949.892 960.008 967.054 972.828 977.849 983.440 988.495 992.778 996.346 999.738 1002.962 1005.624 1007.909 1010.852 1013.096 1013.767 1013.733 1013.516 1013.395 1013.319 1013.974 1017.114 1022.300 1025.778 1030.040 1036.152 1043.588 1050.423 1055.950 1059.442 1060.217 1059.942 1057.992 1056.802 1056.796 1057.363 1059.344 1060.014 1059.989 1058.321 1054.131 1047.950 1040.242 1032.964 1026.963 1022.240 1017.036 1011.222 1007.254 1005.571 1005.182 1004.311 1002.816 1000.406 995.095 985.523 976.327 968.772 962.156 955.354 948.423 941.878 936.255 931.908 928.805 926.811 924.621 920.515 915.720 911.265 907.091 903.037 898.940 894.218 889.224 882.966 876.703 873.060 871.928 872.545 874.524 876.696 877.504 877.396 874.185 867.430 859.616 850.514 838.814 825.208 813.438 803.611 798.247 798.299 800.133 803.686 808.554 813.890 818.407 820.008 819.986 819.026 817.815 816.467 815.021 813.508 811.964 810.427 808.932 807.521 806.236 805.115 804.181 803.446 802.910 802.557 802.368 802.338 802.472 802.783 803.287 804.005 804.938 806.080 807.419 808.947 810.648 812.462 814.252 815.872 817.231 818.294 819.181 819.991
940.297 937.976 935.336 930.432 922.109 913.341 905.583 899.310 893.594 889.642 887.575 885.165 880.589 875.781 872.989 870.929 870.155 869.856 868.654 866.598 864.972 864.993 864.866 863.940 863.188 866.744 872.302 877.038 882.534 889.331 896.481 901.235 905.568 913.891 921.454 926.000 931.242 936.368 939.380 943.883 952.169 960.122 964.949 967.610 969.794 972.076 975.956 982.580 989.519 994.113 995.805 996.329 996.164 994.722 993.026 993.204 996.261 1000.785 1003.885 1002.589 995.688 985.076 973.073 962.940 957.382 952.813 946.994 940.250 937.859 935.821 934.657 933.963 933.765 935.235 939.257 945.896 954.730 964.121 972.722 980.248 986.975 993.368 998.907 1003.506 1007.322 1011.350 1015.268 1018.750 1020.487 1022.207 1025.085 1026.778 1027.405 1027.903 1029.325 1030.046 1030.112 1031.236 1034.070 1037.212 1041.122 1045.725 1051.593 1057.502 1062.362 1065.361 1066.585 1066.136 1064.239 1063.152 1062.756 1062.585 1063.273 1063.436 1062.138 1059.883 1055.552 1048.642 1039.804 1029.851 1022.405 1017.310 1012.881 1008.973 1006.764 1006.222 1006.464 1006.268 1005.299 1003.307 999.017 989.747 980.632 974.534 969.884 965.415 960.500 955.050 949.589 944.228 941.252 940.264 938.905 934.714 929.159 924.100 920.032 916.906 911.983 906.783 901.214 894.464 887.457 882.190 880.149 880.075 881.203 883.253 883.216 881.917 878.310 871.632 863.299 853.015 840.546 828.491 817.342 805.046 798.010 797.312 799.128 801.649 805.829 810.712 815.013 817.325 817.846 817.303 816.271 815.044 813.712 812.318 810.894 809.477 808.101 806.800 805.611 804.573 803.716 803.059 802.605 802.340 802.248 802.322 802.569 803.004 803.653 804.536 805.644 806.963 808.477 810.171 812.012 813.904 815.684 817.207 818.449 819.376 819.999 820.901
931.263 929.782 926.797 921.460 913.172 904.453 896.435 889.533 883.655 880.448 880.071 879.018 874.043 866.818 861.322 857.742 856.586 858.055 858.572 857.163 854.748 855.044 856.257 857.103 858.569 863.727 872.143 880.553 889.513 895.805 898.238 899.131 901.533 909.270 916.410 919.740 922.127 928.793 934.847 941.061 950.312 960.070 968.106 974.042 977.622 979.833 982.511 989.647 996.522 999.927 1000.078 1000.036 999.990 998.448 997.472 999.864 1005.175 1010.473 1012.211 1008.261 999.127 988.378 978.312 968.990 962.492 956.635 950.272 944.609 942.261 940.504 940.270 940.499 941.679 944.861 949.216 954.291 960.073 968.618 978.621 987.987 996.948 1003.755 1009.697 1014.888 1019.638 1024.081 1029.094 1032.272 1033.487 1034.144 1035.631 1038.284 1039.475 1040.120 1042.354 1044.178 1044.875 1045.846 1048.101 1050.910 1053.132 1054.693 1058.217 1063.786 1068.794 1071.661 1072.805 1072.506 1070.780 1068.885 1067.498 1066.633 1066.205 1065.425 1063.517 1060.303 1055.975 1047.715 1037.578 1025.149 1015.754 1009.017 1004.693 1003.171 1002.684 1003.472 1004.737 1005.173 1004.562 1002.999 1000.048 993.400 985.810 980.054 976.634 973.647 970.363 966.676 962.786 958.719 955.374 953.689 951.347 946.729 940.935 935.367 930.950 927.709 923.734 918.844 912.951 906.127 899.888 894.705 891.011 889.838 890.389 890.773 889.277 885.574 880.092 873.327 864.734 852.568 839.453 828.149 817.328 804.996 797.933 796.863 798.282 800.111 803.563 807.562 811.190 813.611 814.670 814.711 814.134 813.224 812.130 810.931 809.681 808.422 807.193 806.026 804.959 804.031 803.277 802.722 802.370 802.208 802.223 802.407 802.768 803.325 804.110 805.137 806.391 807.853 809.509 811.337 813.281 815.220 816.975 818.390 819.493 820.472 821.281 822.569
923.923 921.674 917.020 910.196 902.468 894.719 886.495 879.562 874.787 872.887 872.641 871.147 866.404 859.402 853.236 849.125 847.044 846.339 845.651 844.889 844.429 847.893 853.347 857.763 861.696 868.015 876.456 886.272 897.263 903.405 904.589 902.207 902.228 908.783 914.717 917.935 919.926 924.904 931.406 938.891 948.004 959.269 969.284 977.813 982.783 987.204 992.284 998.445 1002.645 1004.828 1004.916 1004.595 1004.227 1003.557 1004.781 1009.585 1015.768 1019.875 1020.161 1014.635 1001.969 990.930 982.387 975.915 970.703 965.540 960.125 955.534 953.051 952.293 952.394 953.236 956.020 958.648 961.343 965.209 970.151 977.606 985.883 995.688 1005.362 1013.756 1020.910 1027.698 1033.737 1038.633 1042.338 1044.561 1045.135 1044.986 1045.115 1046.434 1047.716 1048.887 1051.117 1053.526 1055.381 1057.320 1060.861 1063.973 1064.671 1063.638 1066.321 1071.431 1075.906 1077.613 1078.120 1077.962 1075.746 1072.888 1070.514 1068.892 1067.688 1066.287 1064.227 1061.250 1054.948 1044.363 1032.703 1020.170 1009.400 1001.922 997.443 996.395 997.089 999.439 1001.510 1002.209 1001.815 1000.252 999.674 994.818 989.076 984.367 981.487 979.598 977.566 975.380 972.453 969.284 966.280 964.160 960.925 956.168 950.059 944.295 940.250 937.370 934.518 930.357 924.674 918.565 912.709 907.446 902.487 900.236 899.728 898.106 894.978 888.557 880.425 872.967 863.805 850.006 836.445 825.678 814.019 802.985 797.720 796.784 798.089 799.992 802.239 805.120 807.982 810.180 811.461 811.913 811.753 811.194 810.384 809.422 808.378 807.303 806.239 805.223 804.294 803.495 802.867 802.433 802.200 802.154 802.282 802.579 803.053 803.729 804.638 805.784 807.153 808.729 810.498 812.423 814.430 816.386 818.121 819.505 820.566 821.852 823.282 825.000
915.161 910.149 903.679 897.966 892.163 884.567 875.449 868.407 865.115 864.491 864.500 863.018 859.082 853.022 847.147 843.568 841.422 839.817 838.188 838.118 838.791 845.880 855.505 861.679 867.029 874.599 881.686 890.196 899.961 909.295 916.506 916.087 913.857 915.397 918.092 920.151 921.437 924.843 930.167 936.606 945.368 956.421 967.574 978.345 985.341 992.434 999.139 1004.208 1007.421 1009.045 1009.402 1009.391 1009.565 1010.496 1013.581 1019.157 1024.147 1026.979 1026.233 1020.059 1005.913 994.054 986.645 982.207 979.757 977.344 972.462 967.716 965.236 964.735 964.874 965.536 967.699 970.387 973.154 976.225 980.640 986.895 994.654 1004.024 1014.293 1023.696 1032.115 1039.462 1045.081 1048.835 1051.536 1053.684 1055.080 1055.231 1055.104 1055.333 1055.758 1056.681 1059.246 1061.776 1065.068 1067.640 1071.206 1073.647 1075.025 1075.058 1076.074 1079.157 1081.599 1082.063 1081.442 1080.106 1077.958 1074.232 1071.110 1069.034 1067.392 1065.545 1063.093 1059.421 1050.959 1039.139 1026.822 1014.582 1003.458 995.665 990.610 988.756 989.648 992.683 996.054 997.444 997.747 996.953 995.544 992.738 989.443 986.625 984.533 982.899 981.747 980.248 978.586 976.363 973.868 971.418 968.046 963.172 957.557 953.137 950.294 947.987 945.485 941.271 935.723 929.794 924.019 919.157 914.068 909.884 906.638 903.218 899.219 890.427 880.457 871.418 860.971 845.979 833.824 823.677 811.025 800.148 796.930 796.976 798.293 799.980 801.259 803.392 805.620 807.465 808.710 809.338 809.447 809.167 808.617 807.889 807.056 806.172 805.280 804.421 803.641 802.987 802.500 802.204 802.101 802.177 802.422 802.830 803.414 804.202 805.215 806.455 807.912 809.581 811.434 813.412 815.428 817.349 818.973 820.023 821.645 823.550 825.635 827.904
904.872 898.981 893.165 887.901 882.445 874.506 863.919 857.301 854.308 853.518 853.575 852.845 850.150 846.021 841.872 840.551 840.026 838.102 836.607 837.321 841.046 851.703 861.719 867.927 873.800 881.105 888.212 894.260 901.116 911.373 919.893 923.229 923.744 923.871 924.098 924.745 925.252 927.348 931.623 937.460 945.099 954.894 965.527 975.980 985.829 995.509 1002.432 1007.513 1010.781 1012.510 1013.268 1013.818 1014.638 1016.210 1019.510 1024.683 1029.587 1031.980 1030.254 1023.319 1010.324 998.605 992.716 989.214 987.448 985.720 982.527 978.663 975.674 975.029 975.087 975.427 977.074 979.800 982.555 985.516 989.660 995.307 1002.806 1012.283 1022.068 1032.006 1040.770 1047.923 1053.277 1056.695 1059.581 1062.289 1065.679 1067.170 1067.336 1067.208 1067.143 1067.554 1069.443 1071.997 1075.091 1076.971 1079.312 1080.079 1081.591 1082.634 1082.891 1083.900 1084.839 1084.405 1082.873 1080.959 1077.362 1072.324 1068.827 1066.901 1065.161 1063.203 1060.360 1056.445 1046.928 1033.532 1019.960 1007.594 996.925 988.648 982.722 979.599 979.695 983.248 987.685 990.436 991.588 990.747 988.971 987.591 986.858 986.317 985.666 984.873 984.012 982.892 981.536 980.009 978.442 976.439 973.611 969.426 964.597 960.907 959.790 958.711 955.569 950.405 943.800 938.279 932.214 926.536 920.967 916.382 910.613 904.903 899.076 889.391 878.954 868.483 857.044 842.458 831.530 821.168 807.641 798.391 796.667 797.102 798.444 799.706 800.676 802.346 804.033 805.478 806.536 807.164 807.393 807.294 806.945 806.420 805.780 805.078 804.356 803.659 803.035 802.537 802.202 802.051 802.081 802.280 802.640 803.154 803.841 804.729 805.827 807.132 808.654 810.392 812.292 814.263 816.218 818.069 819.584 820.787 822.860 825.402 828.131 830.930
893.949 889.553 882.884 875.978 869.765 862.153 854.282 847.745 843.007 840.149 839.619 839.459 838.829 837.646 836.564 837.730 838.193 836.599 836.292 840.805 849.892 861.216 869.942 876.287 882.133 890.138 897.959 902.683 907.788 914.901 921.035 927.196 930.883 931.971 931.934 931.260 930.093 931.063 934.922 940.606 948.001 956.653 966.265 976.765 987.682 998.470 1004.989 1009.831 1013.212 1015.223 1016.332 1017.463 1018.732 1020.352 1023.545 1028.952 1034.052 1036.267 1033.839 1026.113 1014.837 1005.440 1000.399 997.426 995.922 994.081 991.293 988.315 985.719 984.787 984.570 984.530 985.593 988.428 991.695 995.117 999.044 1003.634 1010.717 1020.324 1030.098 1039.153 1047.534 1054.940 1060.573 1065.353 1069.457 1073.473 1076.729 1079.205 1079.583 1079.525 1079.452 1079.460 1079.667 1079.936 1081.144 1081.660 1082.347 1083.142 1084.144 1085.090 1085.490 1085.786 1085.709 1084.373 1081.709 1078.413 1073.011 1066.998 1063.591 1062.535 1060.566 1059.320 1056.579 1052.326 1043.431 1028.538 1013.422 1001.237 991.380 982.776 975.182 969.108 967.385 971.717 977.880 981.490 983.832 982.790 980.453 980.165 981.798 983.268 984.298 984.589 984.361 983.790 982.927 981.694 980.666 979.323 977.854 974.995 971.132 967.855 966.079 964.461 961.686 955.763 947.769 940.803 936.161 930.721 925.223 919.379 910.763 902.763 895.643 886.255 875.320 864.182 852.873 840.666 829.851 818.115 803.563 797.675 796.615 797.269 798.640 800.000 800.833 801.876 803.019 804.057 804.868 805.401 805.651 805.650 805.443 805.079 804.606 804.068 803.509 802.973 802.513 802.176 801.999 801.993 802.154 802.470 802.936 803.550 804.329 805.299 806.460 807.806 809.362 811.128 813.021 814.911 816.714 818.414 820.003 821.652 824.136 827.208 830.463 833.667
879.871 877.806 870.185 861.343 855.494 850.157 844.000 837.196 830.718 826.581 825.579 825.424 825.200 825.787 829.364 833.316 835.460 836.507 840.264 847.568 858.844 869.815 878.010 885.200 892.860 901.718 910.514 916.353 919.305 922.662 927.127 933.203 938.704 940.230 940.075 938.452 935.044 935.320 939.342 945.488 952.964 960.875 969.887 980.094 990.789 999.819 1006.311 1011.305 1014.989 1017.351 1018.504 1020.030 1022.163 1025.073 1028.955 1033.714 1038.000 1040.042 1038.268 1031.974 1022.046 1014.205 1009.857 1008.653 1008.896 1006.023 1002.340 999.572 996.410 994.798 994.477 994.627 996.212 999.780 1004.297 1008.351 1011.076 1014.011 1019.748 1028.268 1037.844 1045.708 1053.558 1060.973 1068.168 1074.675 1079.039 1081.993 1083.925 1085.537 1086.084 1086.031 1085.663 1085.031 1084.110 1082.963 1082.345 1081.692 1081.775 1082.168 1082.591 1082.940 1083.112 1083.196 1083.068 1081.777 1078.420 1073.789 1066.986 1060.352 1056.496 1054.884 1052.706 1051.089 1049.663 1046.640 1038.950 1023.645 1008.677 996.770 987.196 978.267 968.412 960.001 956.416 960.068 966.541 971.341 973.538 972.919 971.217 971.211 973.334 976.429 979.591 981.539 982.351 982.881 982.963 982.430 981.601 980.703 980.024 978.775 975.822 972.341 969.284 966.532 963.003 956.163 947.579 940.656 935.860 930.602 925.216 917.798 906.874 898.275 891.424 882.821 871.338 859.320 848.657 838.551 827.557 815.232 801.414 796.905 796.618 797.470 798.736 799.999 800.825 801.554 802.303 803.005 803.583 803.992 804.216 804.261 804.149 803.909 803.575 803.183 802.777 802.402 802.107 801.934 801.911 802.044 802.327 802.751 803.312 804.015 804.872 805.906 807.107 808.468 810.017 811.752 813.572 815.327 816.931 818.419 820.002 822.185 825.147 828.647 832.263 835.699
864.808 864.277 858.651 850.970 844.040 838.120 831.068 823.843 819.459 816.972 816.880 817.662 818.692 820.270 826.519 832.534 837.065 840.257 845.099 853.716 865.618 877.648 886.412 895.061 903.916 913.977 922.737 927.748 930.333 933.122 936.867 942.274 947.588 949.509 948.868 945.282 941.256 941.514 945.530 951.945 959.303 966.586 974.836 984.760 995.042 1000.854 1007.008 1012.235 1016.255 1019.012 1020.073 1022.537 1025.992 1029.914 1034.122 1038.138 1040.274 1042.346 1042.508 1039.719 1032.399 1024.510 1020.323 1020.633 1022.278 1020.700 1016.640 1011.211 1006.788 1004.941 1004.897 1006.222 1010.187 1015.694 1020.681 1023.480 1024.209 1026.153 1031.441 1038.127 1044.981 1052.458 1059.446 1066.903 1074.350 1080.323 1084.008 1086.212 1087.408 1088.029 1088.117 1087.635 1086.563 1085.115 1083.530 1081.465 1079.926 1078.263 1076.963 1076.419 1075.866 1074.923 1074.345 1074.413 1075.049 1075.076 1072.121 1067.137 1060.991 1054.870 1049.108 1044.866 1041.659 1040.435 1040.363 1039.211 1033.110 1020.710 1006.823 994.940 984.967 974.459 963.273 953.496 947.999 949.911 955.769 960.000 960.929 960.412 959.778 959.932 961.196 965.045 970.019 974.667 977.922 980.211 981.808 982.007 981.846 981.523 980.945 980.033 978.485 974.566 969.759 965.041 960.716 952.253 943.212 936.971 931.103 925.242 919.428 910.263 900.307 893.351 886.554 877.726 865.479 853.610 843.429 833.912 823.148 810.353 800.022 796.900 796.753 797.831 798.946 799.996 800.698 801.242 801.737 802.193 802.583 802.879 803.062 803.126 803.080 802.935 802.716 802.456 802.195 801.977 801.844 801.829 801.950 802.211 802.604 803.123 803.770 804.550 805.471 806.549 807.770 809.118 810.613 812.252 813.941 815.546 816.998 818.378 820.002 822.448 825.716 829.471 833.262 836.807
852.186 852.585 849.506 843.116 834.418 825.845 818.989 815.093 813.562 814.014 815.755 818.374 821.910 825.536 831.338 837.051 841.250 845.448 850.785 859.932 872.803 884.117 893.988 904.573 915.894 925.591 933.703 939.176 942.932 947.817 952.381 957.190 959.850 960.253 959.575 957.104 953.511 953.152 955.037 959.122 964.991 972.389 980.200 989.672 999.176 1003.251 1007.962 1012.960 1017.145 1019.928 1022.040 1025.413 1029.595 1034.070 1038.271 1041.506 1043.683 1045.371 1045.945 1044.375 1040.120 1034.335 1030.711 1030.679 1031.487 1030.390 1026.722 1021.346 1016.884 1014.942 1014.936 1016.824 1021.709 1028.027 1033.208 1035.240 1036.500 1039.330 1043.218 1047.727 1052.699 1058.838 1065.195 1072.319 1078.201 1082.595 1085.778 1087.396 1087.891 1087.740 1087.119 1085.753 1083.453 1080.692 1078.891 1075.880 1072.960 1070.381 1067.732 1066.260 1064.850 1062.162 1060.737 1060.809 1062.272 1064.178 1062.728 1059.263 1055.485 1049.987 1042.802 1035.723 1031.457 1030.217 1030.503 1030.060 1026.411 1018.225 1006.244 994.947 984.595 972.381 959.582 948.593 940.993 940.994 945.823 949.150 949.490 947.919 947.142 948.324 950.389 953.991 959.120 964.850 970.685 975.960 979.748 980.633 981.494 982.194 982.398 981.815 980.054 975.880 968.827 961.132 954.582 944.975 937.006 930.929 923.721 915.403 908.202 900.827 893.872 887.822 880.701 870.578 858.848 847.269 837.254 828.248 818.013 805.833 798.950 797.442 796.802 798.343 799.985 800.181 800.632 800.992 801.296 801.573 801.820 802.024 802.168 802.242 802.242 802.174 802.054 801.913 801.789 801.720 801.739 801.870 802.121 802.493 802.981 803.585 804.307 805.153 806.127 807.232 808.455 809.771 811.175 812.664 814.179 815.637 817.008 818.377 820.003 822.440 825.769 829.601 833.422 836.922
840.399 841.445 840.520 835.239 825.328 816.979 812.495 811.340 812.779 816.154 820.605 825.892 831.248 835.900 841.170 846.596 851.312 854.201 857.934 867.142 879.241 888.842 898.887 910.789 923.521 934.740 943.953 951.777 959.503 966.426 970.508 972.667 973.042 971.395 969.141 966.436 964.022 963.130 963.240 965.494 970.768 977.459 984.364 992.029 998.527 1002.812 1008.001 1013.289 1017.965 1021.049 1024.040 1027.773 1032.208 1036.833 1040.301 1043.689 1046.237 1047.947 1048.548 1047.598 1044.911 1041.312 1040.528 1041.124 1041.156 1039.524 1035.816 1031.333 1026.918 1024.784 1024.233 1025.649 1030.294 1036.744 1042.642 1045.371 1047.366 1050.398 1052.998 1055.982 1059.303 1063.824 1070.944 1077.270 1080.218 1083.393 1085.483 1086.159 1085.750 1084.722 1083.073 1080.335 1076.490 1072.361 1068.663 1065.456 1061.796 1058.989 1055.623 1053.224 1050.787 1048.169 1046.839 1046.894 1048.171 1049.730 1049.431 1048.445 1047.851 1044.009 1036.081 1025.692 1020.018 1019.080 1019.698 1020.327 1019.427 1014.127 1005.229 995.407 984.696 970.641 957.003 946.834 939.753 936.022 936.471 937.293 937.017 934.811 934.063 936.672 939.537 943.521 949.009 955.541 962.418 970.071 976.072 979.795 981.056 982.854 984.109 984.351 982.595 977.573 968.134 958.927 950.114 940.566 933.064 925.904 916.493 904.522 897.589 892.733 887.789 881.703 873.994 862.835 851.988 840.992 831.072 822.653 813.435 803.713 798.622 797.114 796.768 798.415 799.999 800.499 800.688 800.833 800.973 801.119 801.267 801.406 801.521 801.601 801.639 801.635 801.604 801.571 801.572 801.638 801.793 802.051 802.415 802.884 803.457 804.135 804.923 805.826 806.842 807.962 809.175 810.447 811.747 813.063 814.381 815.685 816.994 818.397 820.005 822.075 825.312 829.144 833.010 836.627
829.782 831.284 829.534 823.009 815.330 809.657 808.589 811.148 816.132 823.050 831.399 838.406 844.163 848.705 853.459 858.391 862.398 864.286 867.076 874.827 883.477 891.105 900.368 913.113 926.873 939.614 951.254 962.655 974.456 981.686 984.996 986.157 985.754 982.657 979.310 975.611 972.532 970.538 969.616 970.950 975.714 981.606 987.279 993.340 998.191 1002.283 1007.537 1013.051 1018.037 1021.882 1025.068 1028.535 1032.865 1037.783 1041.721 1045.114 1048.007 1049.926 1050.779 1050.667 1049.970 1049.831 1051.880 1054.121 1053.605 1050.186 1045.517 1040.900 1036.867 1034.347 1032.728 1033.763 1037.641 1043.967 1050.213 1053.914 1056.494 1059.152 1060.029 1061.662 1064.394 1068.828 1074.960 1079.974 1081.235 1082.850 1083.376 1082.629 1080.706 1078.587 1074.554 1069.780 1064.869 1060.187 1055.892 1052.153 1048.315 1044.782 1041.269 1038.930 1035.733 1033.629 1033.036 1033.155 1034.002 1035.287 1036.048 1037.397 1038.913 1035.361 1026.470 1015.671 1008.026 1006.079 1007.477 1010.396 1012.024 1010.212 1004.680 997.020 986.003 971.166 957.325 947.513 939.753 931.735 923.915 921.371 920.264 919.437 919.829 922.570 927.363 933.072 939.478 946.398 954.890 963.777 970.999 976.468 980.004 982.696 984.924 986.080 984.833 979.391 967.722 957.372 948.898 939.946 931.229 922.206 910.240 898.132 891.059 886.142 881.484 874.582 865.393 855.476 845.296 833.822 823.674 816.484 809.532 803.194 799.848 797.175 796.577 798.251 800.001 800.551 800.651 800.692 800.741 800.813 800.904 801.006 801.107 801.196 801.267 801.319 801.365 801.429 801.539 801.722 801.994 802.360 802.821 803.374 804.021 804.766 805.613 806.567 807.618 808.749 809.945 811.170 812.374 813.533 814.658 815.784 816.952 818.208 819.492 821.286 824.535 828.324 832.279 836.217
819.420 820.251 818.306 812.245 805.878 802.871 806.391 813.722 823.228 834.745 844.778 852.024 857.712 861.634 865.918 870.002 873.455 875.036 877.229 881.916 887.930 894.142 902.707 915.989 929.958 941.917 954.263 968.644 982.119 990.183 994.898 998.121 999.781 997.722 993.791 989.025 983.791 980.234 977.230 976.551 979.817 984.717 989.927 995.297 999.726 1002.599 1006.966 1012.125 1017.359 1021.431 1024.043 1026.734 1030.581 1035.691 1040.564 1045.417 1049.003 1051.322 1052.611 1053.342 1054.157 1055.850 1058.775 1061.315 1061.291 1058.845 1053.947 1049.103 1045.024 1042.209 1040.116 1040.824 1044.803 1050.906 1056.822 1059.708 1061.386 1063.148 1064.212 1065.488 1067.858 1071.490 1075.879 1079.045 1079.932 1080.032 1079.181 1076.268 1072.633 1067.802 1061.940 1056.216 1051.382 1046.747 1042.128 1038.089 1033.745 1030.008 1026.914 1024.131 1020.992 1019.826 1019.697 1019.973 1021.336 1023.879 1025.234 1026.292 1026.946 1024.719 1018.044 1007.982 998.273 994.041 995.192 1000.144 1004.631 1006.571 1004.875 999.706 989.554 975.677 961.390 950.682 942.265 932.504 920.736 912.829 906.730 905.108 906.617 910.953 916.618 923.219 930.179 937.475 946.456 956.865 964.224 970.494 976.215 980.249 983.127 985.116 984.162 978.499 967.409 958.099 949.054 939.893 929.830 919.457 907.060 895.487 886.955 879.534 872.101 864.098 855.508 847.215 838.024 825.940 816.837 811.154 806.471 802.705 799.996 797.214 796.129 797.763 799.573 800.221 800.465 800.543 800.583 800.636 800.711 800.803 800.904 801.007 801.107 801.208 801.320 801.466 801.668 801.948 802.317 802.775 803.320 803.949 804.664 805.471 806.374 807.374 808.458 809.599 810.776 811.957 813.086 814.129 815.099 816.048 817.027 818.063 819.236 821.021 823.847 827.374 831.282 835.440
808.270 809.443 807.901 803.766 800.035 799.923 806.596 818.302 832.558 846.216 856.481 863.781 869.268 873.704 878.292 882.479 887.182 889.930 891.398 893.534 896.749 901.897 910.802 923.506 936.775 946.072 956.416 971.175 986.204 996.828 1005.050 1013.197 1017.222 1016.681 1013.285 1007.689 1001.300 995.335 989.827 986.727 987.613 990.608 994.110 997.990 1000.663 1002.730 1005.793 1009.761 1013.976 1017.685 1019.904 1022.004 1025.004 1030.426 1038.103 1044.269 1048.822 1051.782 1053.578 1054.865 1056.266 1058.099 1060.003 1061.436 1061.980 1060.850 1058.373 1054.881 1051.623 1049.076 1047.634 1048.278 1051.253 1055.729 1059.977 1061.953 1063.500 1064.831 1065.911 1067.263 1069.263 1071.798 1074.282 1075.637 1075.283 1073.378 1070.050 1065.711 1060.676 1054.761 1048.382 1042.274 1037.790 1033.198 1028.691 1024.259 1019.773 1015.634 1012.611 1009.636 1007.007 1006.235 1006.293 1006.662 1008.046 1010.624 1012.827 1014.335 1015.686 1015.606 1011.696 1003.145 991.914 983.604 982.354 988.077 995.460 1001.582 1003.577 1001.550 994.745 982.919 968.361 955.589 946.390 937.151 924.771 913.111 900.945 896.143 897.050 901.974 907.984 915.315 922.762 930.336 939.088 948.653 956.384 962.281 968.357 973.181 977.023 979.514 978.536 972.622 963.967 956.005 947.624 938.492 927.425 916.942 905.956 894.648 883.998 872.665 861.650 853.316 845.869 839.349 831.210 820.886 813.226 807.952 804.381 802.011 799.999 797.339 795.695 797.154 798.900 800.000 800.335 800.449 800.513 800.583 800.671 800.772 800.883 801.001 801.128 801.269 801.435 801.647 801.924 802.284 802.734 803.271 803.892 804.592 805.373 806.241 807.198 808.242 809.359 810.511 811.671 812.812 813.891 814.867 815.743 816.564 817.385 818.251 819.298 820.875 823.292 826.459 830.132 834.101
797.321 799.524 799.960 798.687 798.193 800.300 807.895 820.708 837.458 852.178 863.531 872.087 879.232 884.960 890.607 896.452 902.742 907.888 909.620 909.852 910.785 914.653 922.279 933.410 943.196 950.810 961.023 976.771 992.456 1005.833 1018.117 1026.968 1032.271 1033.085 1030.179 1025.762 1020.200 1014.024 1007.500 1002.546 1001.249 1001.818 1002.507 1003.138 1002.688 1002.570 1003.647 1005.678 1007.871 1009.837 1011.740 1014.399 1017.112 1021.691 1029.886 1039.911 1046.715 1050.737 1053.122 1054.750 1056.278 1057.933 1059.432 1060.017 1060.597 1060.616 1059.977 1058.131 1056.134 1054.486 1053.586 1053.898 1055.517 1057.896 1060.021 1061.967 1063.558 1064.404 1065.249 1066.777 1068.657 1070.142 1070.637 1069.808 1067.538 1063.312 1057.607 1051.531 1046.104 1040.415 1034.600 1028.802 1024.299 1020.029 1015.720 1011.057 1006.384 1002.126 999.338 996.193 993.578 992.769 992.821 993.002 993.598 995.445 998.308 1001.247 1004.699 1006.040 1004.607 998.267 985.409 974.353 970.987 974.961 982.937 992.381 998.828 1000.206 997.155 988.198 975.441 960.355 949.486 939.850 928.732 916.563 901.023 891.585 889.650 893.589 900.189 908.408 916.320 923.587 931.492 940.490 947.858 953.544 958.573 962.307 966.079 967.660 967.080 963.885 958.929 952.656 944.789 935.004 924.189 914.483 904.609 892.967 879.929 866.060 854.434 845.644 839.500 834.075 827.553 819.862 811.965 806.119 802.874 801.216 799.923 796.831 795.237 796.750 798.453 799.710 800.224 800.430 800.540 800.648 800.763 800.881 801.003 801.135 801.282 801.455 801.664 801.929 802.268 802.694 803.214 803.824 804.516 805.287 806.134 807.063 808.075 809.164 810.309 811.474 812.623 813.735 814.783 815.731 816.568 817.320 818.033 818.733 819.475 820.738 822.881 825.750 829.213 833.175
785.449 790.479 794.449 796.542 798.698 803.189 810.261 820.937 836.230 850.226 863.584 876.306 887.599 896.485 903.712 910.943 917.571 922.164 924.115 924.460 924.908 927.614 933.894 942.038 949.410 957.201 969.489 985.984 1001.945 1016.341 1027.661 1036.232 1042.026 1044.885 1043.107 1040.519 1036.082 1030.162 1024.527 1020.264 1018.667 1018.359 1017.413 1012.946 1006.462 1001.854 1000.128 999.725 999.758 1000.120 1001.564 1005.033 1008.558 1013.147 1020.945 1032.960 1042.391 1047.771 1050.847 1052.752 1054.371 1056.123 1057.865 1059.143 1059.996 1060.267 1060.001 1059.481 1058.543 1057.566 1056.870 1056.749 1057.324 1058.437 1059.629 1060.849 1062.339 1062.070 1062.262 1064.010 1065.886 1066.356 1064.643 1061.073 1056.801 1050.171 1043.091 1037.237 1032.343 1027.166 1021.681 1016.525 1012.122 1007.683 1003.592 998.823 994.306 990.514 987.204 984.681 981.659 980.388 980.342 980.395 980.332 980.525 981.936 986.062 990.819 993.669 993.695 988.791 977.461 964.648 959.829 961.760 969.090 979.265 988.837 994.444 994.748 988.900 977.814 962.189 950.597 940.239 929.002 916.482 900.564 887.829 882.744 885.321 893.403 902.515 910.077 916.485 922.443 930.488 937.437 942.338 947.214 951.372 954.448 955.732 955.917 955.071 952.225 947.315 940.222 930.138 919.710 910.532 900.707 888.181 873.634 859.948 849.845 842.154 835.911 830.362 825.018 818.860 810.398 803.984 801.204 800.044 798.571 795.450 794.940 796.794 798.279 799.361 800.252 800.502 800.673 800.827 800.968 801.098 801.225 801.362 801.521 801.716 801.959 802.268 802.660 803.145 803.730 804.409 805.172 806.014 806.930 807.924 808.993 810.126 811.297 812.473 813.618 814.717 815.749 816.688 817.508 818.210 818.837 819.462 819.997 820.842 822.743 825.359 828.670 832.704
780.590 788.136 794.888 800.073 805.214 811.256 817.013 824.106 834.283 844.448 859.130 877.337 893.988 906.532 916.519 923.110 927.724 930.739 932.800 934.474 935.637 938.650 943.599 950.145 957.249 966.965 980.525 995.812 1011.601 1024.262 1033.591 1041.562 1049.599 1054.377 1055.284 1054.192 1050.646 1044.153 1038.196 1034.461 1032.288 1029.996 1025.893 1018.485 1007.533 999.681 994.328 990.886 989.867 990.725 992.899 996.437 1000.449 1005.584 1014.036 1025.216 1035.783 1042.835 1046.664 1048.829 1050.619 1052.817 1055.267 1057.489 1059.177 1060.002 1060.161 1059.855 1059.232 1058.332 1057.431 1056.787 1056.584 1056.913 1057.804 1058.827 1059.771 1058.293 1057.626 1059.116 1059.802 1059.177 1055.267 1049.174 1042.676 1036.316 1030.737 1025.905 1021.129 1016.229 1011.049 1005.995 1001.195 996.623 992.233 987.390 983.462 980.089 977.065 974.638 971.947 970.230 969.974 969.903 969.085 967.426 967.297 970.344 975.034 978.428 978.764 975.433 968.341 958.461 950.926 950.192 955.062 964.110 976.109 985.263 989.130 985.582 975.438 961.564 950.480 939.736 927.044 914.013 899.453 885.181 877.901 879.420 887.129 896.465 903.911 909.667 914.617 919.858 925.000 929.966 935.378 939.887 943.436 945.357 945.800 945.472 943.219 938.486 931.361 921.989 913.172 904.176 894.155 881.315 866.812 855.110 846.395 838.815 831.519 826.216 821.885 815.638 807.322 800.726 798.837 797.431 795.434 793.338 795.063 797.602 799.143 799.996 800.362 800.696 800.940 801.126 801.273 801.395 801.510 801.639 801.800 802.008 802.279 802.626 803.066 803.607 804.254 805.002 805.839 806.756 807.746 808.808 809.938 811.116 812.310 813.493 814.639 815.734 816.761 817.690 818.472 819.084 819.539 820.000 820.297 821.228 822.903 825.270 828.435 832.481
786.410 794.517 802.392 810.647 818.104 824.527 830.940 837.269 840.663 843.853 856.581 876.378 896.415 911.535 922.924 930.377 934.862 937.488 940.752 944.671 946.709 949.095 953.454 959.381 966.887 977.847 991.095 1005.490 1020.064 1030.323 1037.347 1045.380 1055.010 1060.435 1062.723 1063.312 1061.904 1057.693 1051.535 1045.936 1040.961 1035.936 1028.051 1017.072 1003.195 993.527 985.831 981.164 980.273 982.260 984.288 987.399 992.129 998.768 1007.793 1018.551 1028.400 1036.264 1040.689 1043.200 1045.274 1048.378 1051.970 1055.223 1057.813 1059.565 1060.003 1059.592 1058.480 1057.117 1055.682 1054.409 1053.467 1052.885 1052.605 1052.368 1051.686 1050.599 1049.987 1049.442 1048.201 1046.431 1041.793 1035.639 1029.799 1024.382 1020.157 1016.244 1011.427 1006.242 1001.075 996.294 991.414 986.300 981.221 976.683 973.201 970.129 966.985 964.093 960.565 958.388 958.013 958.029 957.294 954.743 953.709 956.094 959.726 961.593 962.207 961.602 959.305 951.872 942.567 939.841 943.056 950.552 961.452 973.585 981.885 980.702 971.333 959.514 949.031 937.964 923.752 911.865 898.494 882.769 873.434 873.350 880.463 889.199 896.641 902.548 907.466 911.991 915.662 919.168 923.707 927.539 931.445 933.680 934.029 933.329 930.505 925.388 918.747 911.127 903.648 895.222 885.852 874.874 861.773 851.495 842.765 833.152 825.014 820.665 817.661 812.088 804.493 798.463 795.155 792.663 791.099 791.747 795.362 799.004 800.001 800.424 800.832 801.174 801.408 801.565 801.672 801.751 801.829 801.934 802.084 802.298 802.591 802.972 803.456 804.053 804.764 805.583 806.496 807.493 808.563 809.700 810.895 812.120 813.338 814.523 815.661 816.746 817.758 818.654 819.346 819.799 820.001 820.427 820.940 821.822 823.276 825.429 828.464 832.449
794.859 803.465 812.599 820.669 828.677 837.851 847.567 854.737 856.407 855.471 861.451 877.456 894.661 910.263 923.593 934.400 941.218 946.853 953.493 958.937 960.392 961.046 963.774 968.593 976.773 988.786 1002.106 1015.814 1026.567 1034.830 1040.603 1047.815 1056.336 1061.547 1063.924 1065.661 1066.025 1064.355 1060.344 1053.820 1045.819 1037.667 1026.422 1011.474 996.947 986.044 978.130 974.006 973.141 974.760 976.151 978.960 983.474 991.153 1001.330 1011.981 1020.977 1028.548 1033.210 1035.890 1039.282 1043.671 1048.557 1052.656 1055.713 1057.637 1058.251 1057.645 1056.145 1054.221 1052.164 1050.242 1048.647 1047.179 1045.715 1043.992 1041.652 1040.403 1039.493 1037.329 1034.293 1031.819 1027.646 1022.605 1018.725 1014.505 1010.548 1006.200 1001.074 995.821 990.440 985.540 980.643 975.351 970.225 965.693 961.680 958.769 954.820 950.613 946.144 942.449 941.355 941.176 940.884 940.079 940.377 943.386 946.061 947.791 949.712 950.615 949.586 944.391 936.245 930.652 931.559 937.948 948.523 961.481 972.185 973.772 966.212 955.891 945.218 932.807 919.854 909.323 897.034 879.965 866.849 865.080 872.004 880.057 886.935 892.936 898.876 904.197 907.816 910.173 912.519 914.716 918.218 920.186 920.020 918.598 915.211 910.391 904.939 898.892 892.535 885.312 877.850 869.222 858.406 847.383 836.794 824.631 817.961 815.363 813.221 809.388 803.508 796.782 790.905 786.880 785.423 788.347 794.721 799.942 801.127 801.613 801.844 802.001 802.095 802.137 802.146 802.143 802.158 802.218 802.346 802.557 802.865 803.278 803.806 804.459 805.237 806.128 807.122 808.205 809.363 810.584 811.847 813.123 814.367 815.549 816.660 817.702 818.652 819.432 819.998 820.170 820.548 821.028 821.647 822.506 823.820 825.851 828.834 832.765
799.998 808.945 818.649 825.688 834.393 846.618 859.557 867.500 870.584 870.754 873.556 882.968 894.834 908.468 922.231 936.609 947.245 957.776 967.524 973.472 974.423 974.215 974.791 977.728 986.532 999.571 1011.345 1021.137 1027.604 1034.620 1041.283 1047.196 1053.644 1058.259 1060.564 1063.522 1064.995 1065.063 1062.540 1056.575 1047.692 1037.494 1022.941 1005.613 991.628 981.001 972.860 967.907 966.467 967.032 968.069 970.673 975.693 983.970 995.220 1006.170 1015.199 1021.806 1024.489 1026.637 1032.287 1039.489 1045.501 1050.161 1053.193 1054.860 1055.191 1054.242 1052.356 1049.984 1047.430 1044.942 1042.951 1040.736 1039.126 1036.496 1033.925 1031.047 1027.271 1022.767 1020.121 1018.442 1015.468 1012.266 1008.548 1004.563 1000.015 994.651 989.015 983.589 977.857 972.568 967.627 962.366 957.963 953.332 948.886 944.707 940.263 935.757 932.183 929.431 927.184 926.273 926.130 926.193 927.679 931.135 933.098 934.959 937.929 939.601 939.780 936.639 929.233 921.540 920.231 925.430 936.767 950.716 962.288 965.657 961.197 952.028 939.408 924.839 914.075 905.026 892.817 876.001 861.215 858.144 863.683 870.875 876.599 881.019 886.386 892.369 896.992 898.412 899.467 900.979 904.030 905.710 904.576 901.990 899.638 895.666 891.683 886.952 881.770 876.688 870.822 863.113 852.462 841.034 828.955 818.449 813.228 811.029 809.421 806.846 802.394 794.445 785.981 781.420 779.945 784.941 794.345 800.188 802.440 803.037 803.106 803.034 802.920 802.789 802.656 802.540 802.467 802.467 802.559 802.760 803.079 803.521 804.094 804.804 805.649 806.617 807.696 808.874 810.128 811.438 812.776 814.107 815.381 816.557 817.618 818.565 819.392 819.998 820.180 820.651 821.190 821.784 822.462 823.313 824.576 826.576 829.608 833.709
803.732 811.114 819.003 824.755 834.210 848.630 863.420 874.114 881.281 886.563 889.839 893.834 901.057 912.750 924.499 936.665 950.002 964.835 977.400 982.626 983.517 983.238 982.989 985.097 993.362 1002.835 1010.251 1016.577 1020.642 1025.659 1032.492 1040.023 1047.001 1052.245 1055.880 1059.341 1060.653 1062.218 1060.272 1054.846 1045.661 1033.471 1017.588 1000.401 987.657 977.746 967.972 961.992 959.814 959.713 960.063 962.665 968.015 976.562 987.982 999.305 1007.947 1013.595 1015.604 1017.984 1025.066 1035.305 1043.356 1047.896 1050.381 1051.533 1051.379 1049.870 1047.510 1044.846 1042.092 1039.383 1036.504 1033.587 1030.819 1028.088 1025.142 1021.438 1015.165 1009.261 1006.836 1006.590 1005.295 1002.817 998.183 992.479 986.503 980.680 975.209 969.476 963.317 958.626 953.761 948.817 944.187 939.470 934.629 929.981 926.040 922.123 920.147 919.331 917.206 915.789 915.562 915.873 917.445 919.783 920.432 921.121 923.260 926.310 928.109 928.120 923.579 916.340 912.624 915.891 926.599 941.729 955.337 961.103 958.750 948.410 933.166 918.081 907.633 898.671 886.548 870.872 857.923 853.887 857.557 862.572 867.118 870.513 874.051 877.895 881.251 882.647 884.888 886.917 888.899 889.744 888.924 887.276 885.707 882.502 880.131 877.002 872.860 868.131 862.515 854.695 843.543 833.748 823.535 815.516 810.517 807.669 805.194 801.975 796.806 788.009 780.506 778.205 778.875 785.967 796.545 802.192 804.071 804.500 804.380 804.091 803.763 803.441 803.145 802.898 802.724 802.652 802.700 802.884 803.210 803.679 804.299 805.068 805.981 807.029 808.203 809.482 810.835 812.236 813.654 815.047 816.358 817.530 818.520 819.328 820.000 820.505 820.874 821.381 821.981 822.644 823.377 824.279 825.566 827.547 830.543 834.730
810.826 813.745 816.800 820.753 830.680 844.397 860.752 874.545 886.503 897.279 903.197 907.257 913.269 922.104 930.323 938.195 950.791 966.169 977.519 982.804 984.979 985.492 985.233 986.096 990.403 995.482 999.936 1004.842 1009.599 1014.337 1019.736 1027.423 1036.213 1042.891 1047.512 1051.826 1055.123 1057.085 1055.736 1050.403 1041.404 1029.007 1012.490 996.599 985.000 974.125 963.367 956.273 952.464 951.571 952.192 954.740 959.786 967.753 978.745 989.482 997.964 1003.377 1006.953 1011.767 1020.386 1032.278 1041.396 1045.063 1046.896 1047.617 1047.128 1044.949 1042.107 1039.393 1036.112 1032.298 1028.000 1023.541 1019.990 1017.166 1013.015 1008.381 1001.984 997.113 995.949 997.283 995.780 992.517 986.150 979.245 973.060 967.440 961.865 956.079 950.301 945.377 940.201 934.677 929.727 925.012 920.388 916.378 913.359 910.776 909.658 909.482 908.776 908.059 907.900 908.190 909.008 909.804 909.862 909.974 911.079 913.049 915.847 918.867 917.394 910.699 906.214 909.380 920.031 934.671 948.795 956.813 955.264 945.456 928.845 912.946 901.010 890.733 879.767 866.986 855.181 848.476 848.320 852.970 858.249 861.173 864.063 866.364 868.976 870.381 871.959 873.468 874.868 875.480 875.424 875.193 874.663 872.724 870.397 867.497 862.937 857.117 850.042 842.041 833.848 826.368 819.580 813.450 808.387 804.156 799.360 793.052 785.760 780.110 777.735 778.424 782.300 790.570 799.496 803.869 805.455 805.746 805.488 805.028 804.516 804.014 803.559 803.177 802.898 802.748 802.747 802.909 803.239 803.736 804.402 805.232 806.217 807.352 808.626 810.008 811.459 812.950 814.450 815.911 817.260 818.430 819.348 820.000 820.588 821.116 821.616 822.188 822.838 823.549 824.363 825.380 826.741 828.650 831.373 835.131
821.412 821.590 821.097 823.162 831.432 842.737 858.484 873.300 887.511 900.437 910.077 916.887 923.766 931.178 938.050 943.058 952.430 963.644 972.330 977.339 979.876 981.532 981.474 980.213 980.581 981.634 983.703 988.483 996.068 1003.239 1009.212 1015.066 1022.093 1029.558 1035.558 1041.193 1045.886 1048.770 1048.529 1044.008 1036.509 1025.983 1010.978 996.213 984.732 972.784 960.400 950.986 944.927 943.468 943.862 945.770 950.521 957.567 967.513 977.915 985.946 992.726 998.992 1006.517 1016.757 1027.976 1037.078 1040.594 1042.463 1042.879 1042.561 1040.024 1036.424 1032.532 1028.140 1023.009 1016.968 1010.772 1006.837 1003.067 998.641 992.991 987.892 985.192 985.189 986.196 985.218 980.966 974.250 967.292 961.488 956.309 950.742 944.355 937.886 931.902 926.051 920.719 916.417 912.516 908.370 905.142 902.855 900.441 899.880 899.916 899.883 899.604 899.288 899.233 899.316 899.384 899.482 899.687 899.900 900.549 902.775 906.113 905.955 902.629 900.022 904.676 915.785 929.289 942.265 951.001 951.458 943.128 925.926 909.148 895.470 884.037 874.255 864.462 853.756 843.960 840.225 843.920 849.281 853.109 855.458 857.197 859.312 859.771 860.154 861.571 864.034 864.877 865.031 864.978 864.354 862.398 859.419 856.014 849.961 842.939 836.266 829.994 824.636 820.569 816.865 811.688 805.953 799.516 791.663 783.811 778.497 777.016 778.502 781.939 788.100 795.776 801.601 804.975 806.408 806.663 806.339 805.765 805.108 804.453 803.853 803.346 802.964 802.735 802.682 802.820 803.150 803.674 804.389 805.282 806.345 807.575 808.954 810.436 811.979 813.559 815.148 816.677 818.040 819.156 819.997 820.513 821.103 821.700 822.306 822.974 823.700 824.473 825.385 826.548 828.000 829.806 832.177 835.431
836.625 837.518 836.234 836.823 839.720 847.123 859.820 874.248 889.434 903.869 915.214 921.281 928.586 936.098 941.894 946.414 952.352 958.829 963.705 966.652 968.234 970.080 971.016 970.796 970.266 969.971 971.085 974.923 981.464 990.377 998.085 1003.208 1008.025 1013.870 1020.367 1027.239 1033.096 1037.163 1037.957 1034.710 1030.034 1023.955 1012.644 998.881 986.202 973.397 960.063 947.955 939.193 935.332 934.605 936.307 940.901 948.116 957.676 967.026 975.402 982.901 992.620 1003.165 1014.516 1024.924 1032.391 1036.166 1037.369 1037.153 1036.396 1033.634 1029.340 1024.303 1018.508 1011.106 1002.907 997.398 994.780 991.599 985.620 978.506 972.611 970.106 971.053 973.131 972.820 968.572 962.370 956.993 951.871 946.134 939.813 932.450 925.223 919.379 914.123 909.550 905.758 902.745 899.325 896.492 894.668 892.160 890.516 890.024 889.835 888.706 887.091 886.632 886.560 886.633 887.470 889.003 889.701 890.872 893.133 895.401 896.189 896.430 897.763 903.892 914.321 926.642 938.667 946.532 947.760 940.830 924.422 907.180 891.612 879.270 870.320 862.268 853.158 844.000 839.874 840.142 842.922 845.789 847.286 848.235 849.055 849.264 849.593 850.944 852.708 853.263 853.290 852.761 850.993 848.826 845.613 841.699 837.088 831.459 825.802 821.014 818.337 816.398 813.923 809.805 803.653 794.466 784.854 778.580 776.460 777.430 780.508 786.554 794.390 800.212 803.601 806.008 807.137 807.318 806.940 806.281 805.510 804.730 804.007 803.389 802.910 802.604 802.496 802.605 802.935 803.486 804.251 805.213 806.361 807.694 809.180 810.758 812.388 814.061 815.750 817.353 818.691 819.638 820.200 820.846 821.553 822.258 822.973 823.755 824.585 825.437 826.438 827.718 829.236 830.956 833.040 835.847
849.063 851.060 850.143 849.492 850.979 856.164 866.364 879.971 895.395 911.185 920.808 924.385 929.289 935.437 940.587 944.616 947.904 950.721 952.748 953.505 954.231 955.791 957.332 958.248 957.813 957.630 959.378 964.296 970.656 977.965 984.846 989.545 993.188 997.465 1002.713 1010.047 1016.997 1020.864 1022.229 1021.753 1021.396 1020.320 1012.956 1000.757 988.634 976.063 961.803 946.924 934.219 926.881 924.570 926.036 930.877 938.451 948.165 958.655 968.033 977.066 988.079 1000.617 1013.080 1022.452 1028.054 1030.893 1031.394 1030.452 1028.537 1025.296 1021.059 1015.641 1007.912 998.234 989.494 985.695 984.651 981.929 974.301 965.004 957.648 954.250 955.905 959.328 959.849 956.843 952.321 947.822 942.392 935.081 927.247 920.221 914.819 909.940 905.026 900.790 897.407 894.719 891.566 888.901 886.648 883.909 881.087 880.066 879.923 878.850 876.498 875.675 875.557 875.856 877.331 879.431 880.182 882.353 884.897 887.164 888.586 890.901 895.880 903.761 913.360 923.835 934.168 941.830 942.962 937.139 922.299 905.703 889.266 876.345 867.999 860.125 851.576 843.972 839.763 838.041 838.393 839.859 840.078 840.133 840.187 840.155 840.109 840.205 840.342 840.280 840.207 839.726 837.737 836.037 834.575 832.100 828.555 824.151 820.348 817.907 815.298 813.414 811.211 807.390 800.628 789.069 779.938 776.795 776.976 779.705 783.811 790.182 797.048 802.027 804.979 806.852 807.714 807.777 807.322 806.581 805.716 804.837 804.015 803.302 802.737 802.354 802.187 802.261 802.588 803.169 803.991 805.029 806.273 807.715 809.308 810.981 812.697 814.470 816.274 817.968 819.295 820.000 820.533 821.259 822.053 822.865 823.696 824.601 825.556 826.505 827.570 828.891 830.419 832.092 834.031 836.478
857.021 859.821 859.934 860.622 863.641 869.443 877.308 887.602 901.120 916.294 921.977 922.868 925.512 929.790 933.960 936.643 937.865 938.924 939.936 940.495 941.803 944.270 944.522 942.363 940.745 941.157 944.940 953.630 961.991 969.242 974.045 976.919 979.740 982.632 987.984 994.814 1000.843 1005.655 1009.074 1010.919 1012.403 1012.525 1008.571 1000.734 991.008 979.282 963.813 945.319 929.166 919.406 915.592 916.283 920.615 928.393 939.701 952.021 963.265 973.949 985.871 999.099 1010.601 1019.234 1023.374 1025.444 1025.114 1023.435 1020.824 1017.399 1012.948 1006.623 997.747 985.571 977.377 974.197 973.357 970.648 962.676 952.101 943.140 939.883 941.554 945.443 946.843 945.538 941.804 937.599 930.827 922.521 915.798 910.589 906.544 902.242 897.105 892.812 889.193 885.900 882.699 879.824 877.724 874.112 871.375 870.165 869.963 869.416 868.324 867.708 867.572 867.804 868.597 869.515 870.346 872.735 876.009 879.103 880.793 884.063 890.413 899.923 908.857 917.951 926.183 933.183 935.223 931.131 919.686 903.315 887.761 875.632 867.560 859.481 849.126 841.517 836.438 833.011 832.369 833.388 834.215 834.588 834.551 834.078 833.162 831.908 830.466 829.172 828.742 828.588 827.960 827.379 826.914 825.696 823.076 820.275 818.274 815.820 813.347 811.047 808.307 803.794 794.994 782.918 776.939 776.213 778.196 781.508 786.903 793.287 798.512 802.541 805.749 807.484 808.138 808.048 807.490 806.668 805.730 804.779 803.884 803.097 802.455 801.997 801.763 801.794 802.118 802.734 803.621 804.747 806.095 807.651 809.356 811.128 812.940 814.809 816.711 818.481 819.746 820.325 820.977 821.768 822.660 823.596 824.552 825.588 826.687 827.756 828.868 830.159 831.625 833.268 835.226 837.620
858.790 861.677 865.079 870.240 876.850 881.826 886.474 892.695 901.282 911.656 916.060 917.055 919.252 921.336 923.214 922.355 922.615 925.051 928.191 930.183 931.859 933.229 931.499 927.714 925.927 928.427 934.935 945.030 956.004 963.121 965.687 966.363 969.044 973.361 979.378 985.567 989.821 993.117 996.393 998.092 999.143 1000.197 1000.141 997.503 989.299 978.400 961.621 941.568 924.567 913.692 908.020 907.209 911.052 920.374 933.602 947.447 959.787 970.931 982.504 995.477 1006.420 1014.357 1018.370 1020.057 1019.428 1016.805 1013.668 1009.653 1005.077 998.886 988.989 976.878 967.988 963.171 960.461 957.644 950.231 940.105 931.401 927.014 927.727 931.382 933.484 933.318 930.290 924.697 917.270 909.621 904.912 901.007 897.581 892.727 887.468 883.096 879.204 875.131 871.162 867.646 865.518 862.130 860.298 859.900 859.822 859.754 859.647 859.578 859.593 859.693 859.839 859.961 860.175 861.671 865.106 868.705 872.321 875.961 881.866 891.738 900.645 908.933 915.872 921.161 924.566 923.425 915.437 900.947 886.881 875.697 867.256 857.954 845.101 836.454 830.647 826.522 825.558 827.461 829.498 830.532 830.551 829.660 827.963 825.723 823.214 820.763 820.112 820.117 820.069 820.013 819.999 819.663 817.530 815.521 814.298 812.865 810.888 808.096 804.165 798.720 788.946 779.772 776.050 776.645 779.771 783.657 789.926 796.675 801.479 804.632 806.921 808.103 808.396 808.091 807.415 806.529 805.552 804.566 803.632 802.795 802.090 801.558 801.251 801.232 801.550 802.211 803.174 804.397 805.856 807.527 809.350 811.241 813.160 815.108 817.041 818.785 820.001 820.542 821.334 822.318 823.384 824.484 825.592 826.770 828.024 829.237 830.407 831.636 832.974 834.519 836.417 838.707
858.852 861.037 865.402 873.925 882.235 887.067 890.434 893.880 897.969 902.052 906.042 909.027 911.718 913.984 914.893 913.713 914.112 917.496 921.541 922.812 923.461 924.394 921.415 918.287 917.696 921.736 929.567 940.180 950.647 957.090 957.909 955.826 958.991 965.958 973.528 978.981 980.010 979.619 979.465 980.017 981.895 985.404 987.540 986.843 981.585 971.966 955.368 934.708 918.521 907.862 901.107 899.521 903.009 915.013 929.956 944.451 956.219 966.959 978.627 990.493 1001.035 1008.295 1012.099 1013.301 1012.362 1009.424 1005.476 1001.158 996.851 990.971 981.975 969.662 959.191 952.286 947.583 944.459 939.252 930.614 921.484 916.279 915.306 918.039 919.894 920.042 917.610 911.306 903.445 897.535 893.869 889.929 885.159 880.390 875.719 871.079 866.593 862.304 858.912 855.851 854.230 852.199 850.861 850.267 849.482 849.157 849.194 849.218 849.492 850.185 850.894 851.674 852.523 854.197 856.700 860.180 864.110 868.167 874.229 882.613 890.812 898.433 904.317 908.936 912.703 912.633 906.646 896.949 885.888 875.381 865.523 853.601 840.318 831.792 825.769 821.230 820.274 823.420 826.072 827.138 826.853 825.508 823.200 820.458 818.009 815.981 814.908 814.278 813.400 812.276 811.142 809.887 807.669 806.383 807.182 807.682 806.709 803.726 798.759 791.272 783.018 777.586 775.896 777.006 780.026 784.929 791.994 799.429 803.981 806.714 808.062 808.483 808.315 807.784 807.028 806.138 805.180 804.211 803.280 802.426 801.682 801.091 800.712 800.633 800.944 801.661 802.707 804.028 805.593 807.377 809.327 811.359 813.405 815.420 817.310 818.868 819.813 820.461 821.653 822.945 824.247 825.545 826.830 828.163 829.568 830.927 832.177 833.357 834.539 835.895 837.566 839.311
858.271 859.882 861.479 870.110 879.857 885.707 888.994 891.333 893.343 895.189 897.705 900.847 903.887 906.234 907.304 906.978 907.593 911.015 915.343 917.441 919.820 921.812 919.799 914.780 913.574 917.783 926.026 936.259 944.323 948.272 946.497 942.811 946.166 957.903 967.265 970.916 969.084 964.844 961.465 961.814 966.324 972.028 975.331 975.895 972.498 962.477 944.414 925.102 911.439 901.175 893.372 892.695 899.867 911.617 925.258 939.367 951.114 961.777 973.208 984.283 994.417 1000.988 1004.330 1005.024 1004.229 1001.059 996.799 992.037 986.948 981.003 972.661 961.000 950.126 941.696 935.344 932.179 928.336 921.292 912.936 907.056 904.829 905.598 906.563 906.653 904.480 899.279 893.049 887.769 883.249 878.357 873.060 868.566 864.002 859.362 855.373 852.094 849.061 846.808 845.218 843.627 843.153 842.717 840.843 840.115 840.086 840.130 840.742 842.340 843.753 845.600 847.175 848.978 851.354 854.497 857.708 860.821 865.716 872.499 879.659 886.180 891.416 895.434 898.887 899.820 897.001 891.481 883.439 873.353 862.203 849.071 836.980 829.569 824.143 820.016 819.304 821.256 823.329 823.692 822.650 820.765 817.460 813.674 811.021 810.063 809.566 808.219 805.711 802.583 799.093 796.473 793.391 792.412 795.973 798.698 799.230 796.173 790.601 783.742 778.837 776.455 776.154 777.476 780.017 784.501 791.711 800.027 805.282 807.650 808.270 808.073 807.581 806.959 806.254 805.471 804.621 803.735 802.856 802.026 801.285 800.677 800.257 800.131 800.408 801.185 802.294 803.693 805.347 807.234 809.317 811.510 813.705 815.802 817.672 819.085 819.995 820.808 822.222 823.758 825.279 826.774 828.241 829.731 831.264 832.738 834.062 835.216 836.250 837.351 838.725 840.038
